-0.11080919 -0.4218201 -0.16998784
-0.09865362 -0.36860314 -0.15035054
0.0014191791 -0.17020226 -0.1640062
-0.026284136 -0.26869798 -0.15927267
-0.023679063 -0.27510247 -0.16351813
-0.055799186 -0.2816857 -0.15393674
-0.045478664 -0.2963901 -0.17347904
0.02026143 -0.12919305 -0.16887498
-0.026795119 -0.268215 -0.1725416
0.03174817 -0.1304515 -0.17754644
-0.11789676 -0.4294955 -0.16871244
-0.12928471 -0.4668851 -0.17574728
-0.10641254 -0.39625457 -0.17509808
-0.11379944 -0.43965775 -0.16992807
-0.12791447 -0.46449757 -0.17070329
-0.13579139 -0.43152168 -0.1530839
-0.028461233 -0.27657995 -0.17320402
-0.124095626 -0.45095205 -0.15966448
-0.10543867 -0.4144364 -0.17375304
-0.11489246 -0.42738095 -0.15316725
-0.11237246 -0.44369027 -0.16200823
-0.01753673 -0.26152936 -0.15513858
0.0076697543 -0.18615535 -0.1472646
-0.04571122 -0.26688617 -0.14166754
-0.085497856 -0.34975377 -0.15456358
-0.06827766 -0.34677035 -0.17829125
-0.056437828 -0.30472118 -0.14478043
-0.14671496 -0.45524988 -0.16975197
-0.09392894 -0.3704277 -0.14674342
-0.04761444 -0.26863325 -0.14515853
-0.08521022 -0.34100592 -0.14459589
-0.10876489 -0.40373957 -0.14419739
0.057655185 -0.13954577 -0.15480506
-0.12594268 -0.43158385 -0.17168781
-0.012310907 -0.22325906 -0.15301014
0.018923245 -0.19708896 -0.1597519
0.008702129 -0.20958251 -0.16963835
0.020672545 -0.18332021 -0.1519662
-0.13710538 -0.4687155 -0.14539005
-0.026314817 -0.2444554 -0.14499098
-0.11120498 -0.38160267 -0.15199924
0.010424912 -0.15390027 -0.15849856
-0.115300626 -0.44057548 -0.1735682
-0.06362359 -0.34500936 -0.17111157
-0.051343672 -0.31672707 -0.14898239
-0.05291474 -0.29010007 -0.17060602
-0.12657616 -0.46198943 -0.16575982
0.011745371 -0.14424354 -0.16438265
-0.029985689 -0.23182958 -0.16919228
-0.06259946 -0.33723423 -0.15384668
-0.003541246 -0.19322088 -0.140701
-0.012766883 -0.19972976 -0.17140822
0.01425346 -0.15554427 -0.14540102
-0.011339322 -0.2461316 -0.16587253
-0.124627024 -0.46544164 -0.1510067
-0.081587136 -0.390022 -0.15584815
-0.12547131 -0.44783804 -0.16728513
-0.12271918 -0.44926602 -0.15778908
-0.112052836 -0.37723476 -0.16101272
-0.03945425 -0.31126392 -0.15288869
-0.03587018 -0.26360223 -0.17025015
-0.014002629 -0.21950388 -0.15172654
-0.124993205 -0.47402996 -0.15565756
0.02702833 -0.13933033 -0.17009503
-0.09044269 -0.40512717 -0.14849222
-0.11533278 -0.39653918 -0.17182809
-0.0105163455 -0.20366418 -0.14251684
-0.028771028 -0.23718412 -0.14346148
-0.061352246 -0.3235585 -0.1714164
-0.113101535 -0.3845624 -0.15199943
-0.036178015 -0.27651927 -0.17555171
-0.041075945 -0.24947324 -0.16519837
-0.095814094 -0.3627149 -0.15650064
-0.019189924 -0.23749062 -0.14667593
-0.14448676 -0.47485283 -0.17337611
-0.014521584 -0.2003416 -0.15181401
-0.15818195 -0.4859119 -0.16545066
-0.085328095 -0.34657034 -0.14888936
-0.09237018 -0.41018787 -0.15757102
-0.0112912655 -0.257362 -0.15139823
0.0046952665 -0.21459103 -0.16889909
-0.11038261 -0.38393083 -0.14609817
-0.10097322 -0.36448914 -0.16671365
-0.0037959144 -0.18301894 -0.14940925
-0.13430117 -0.43016225 -0.15207317
-0.019748203 -0.26172808 -0.1537291
-0.09433283 -0.41226083 -0.14980523
0.0029267594 -0.2203564 -0.15460752
-0.02143763 -0.2603938 -0.16320187
-0.11916883 -0.4444291 -0.16598997
-0.07698768 -0.33174798 -0.14980462
-0.042551324 -0.30221075 -0.14936234
-0.031992577 -0.26689467 -0.1451391
0.029765494 -0.120203465 -0.18094295
-0.056748845 -0.2860579 -0.15173706
-0.1102327 -0.40833777 -0.14615785
-0.07237157 -0.33439672 -0.14910154
0.008845076 -0.21602213 -0.15608087
-0.017186336 -0.25135607 -0.14857721
-0.04690464 -0.26991415 -0.14210993
-0.15259933 -0.48352396 -0.14999102
-0.063427955 -0.32343 -0.17041922
-0.122744635 -0.47270593 -0.15132232
-0.14944771 -0.45876068 -0.14898773
0.011310279 -0.15927346 -0.1535492
-0.09143955 -0.3652133 -0.14825362
-0.10661754 -0.41094956 -0.17400979
-0.06124278 -0.29129684 -0.15533547
-0.01839725 -0.19935867 -0.1643844
-0.096425064 -0.3856308 -0.1437121
-0.040633798 -0.2611924 -0.1575175
-0.08413956 -0.34920752 -0.14924838
-0.03381025 -0.27387303 -0.17621194
-0.04325047 -0.25922325 -0.14880067
-0.017195404 -0.21020721 -0.15921083
0.013336249 -0.15365493 -0.1491139
-0.13153975 -0.45169842 -0.15270822
0.050678305 -0.13355443 -0.14274211
-0.10979411 -0.37382054 -0.16493264
-0.08472848 -0.40435347 -0.14959934
-0.0048729256 -0.18443921 -0.14666197
-0.14552653 -0.45436937 -0.15227239
-0.0057658255 -0.18848738 -0.14019978
-0.055078752 -0.26818815 -0.1670619
0.027245156 -0.1686531 -0.16125514
-0.05093512 -0.3040884 -0.1754832
-0.114316896 -0.43002084 -0.16665865
0.03047689 -0.14720288 -0.14859286
-0.090792134 -0.3949032 -0.17887056
-0.14863381 -0.45927554 -0.17156805
0.00842122 -0.16087772 -0.1623384
-0.058342233 -0.35135102 -0.15003103
0.020467512 -0.17781523 -0.16768302
-0.01038748 -0.19680096 -0.1420382
-0.13606107 -0.44785276 -0.15374419
-0.039294235 -0.2397428 -0.16605544
0.015345208 -0.14875269 -0.14475659
-0.11487641 -0.40002662 -0.17200874
-0.0581972 -0.32308918 -0.17323844
0.029325083 -0.1605597 -0.17571862
-0.043399222 -0.2760129 -0.14446098
-0.15000227 -0.47736794 -0.1682597
-0.11086494 -0.42783466 -0.15927878
0.04785502 -0.13731758 -0.18389608
0.044377647 -0.13637188 -0.14283262
-0.05604011 -0.32873675 -0.15754914
-0.07405692 -0.33564067 -0.17046562
-0.11789167 -0.39622438 -0.15236552
-0.0043145716 -0.18423557 -0.1714129
-0.022832528 -0.25679627 -0.17566073
-0.120418236 -0.44178435 -0.17643875
-0.037390307 -0.30447263 -0.15143633
-0.11124708 -0.37963238 -0.15500714
-0.13931093 -0.44974515 -0.15732655
0.025092877 -0.1565277 -0.14640883
-0.037715137 -0.30444556 -0.15393314
-0.008461565 -0.23811533 -0.16574453
0.038582705 -0.13747019 -0.17657097
0.022375427 -0.1837917 -0.1557076
0.00327567 -0.20206869 -0.17765298
-0.0036488473 -0.19284886 -0.17464408
0.004495874 -0.17788771 -0.16939212
-0.13202642 -0.4265757 -0.16551173
-0.108878665 -0.38209468 -0.14502463
-0.12234717 -0.42712042 -0.1670614
-0.08404175 -0.33614028 -0.1715477
-0.115028135 -0.39026263 -0.14969963
-0.023968875 -0.27999622 -0.15008375
-0.002739206 -0.19875091 -0.1421698
-0.07924381 -0.36932626 -0.16244707
-0.018341258 -0.21419969 -0.16298452
-0.045938067 -0.27610973 -0.1438798
-0.13969266 -0.46591032 -0.17519084
-0.05454219 -0.27358684 -0.15944701
-0.07342627 -0.31457746 -0.15871346
-0.09015836 -0.39606464 -0.17573284
-0.08523067 -0.36733153 -0.15064624
-0.15300128 -0.4612795 -0.15483457
0.024209507 -0.12612626 -0.13815577
-0.023342125 -0.23552899 -0.17171031
-0.083065 -0.39567417 -0.15623198
0.018245265 -0.11603574 -0.16266574
-0.09525815 -0.37324902 -0.17109233
-0.06262527 -0.31501475 -0.14561851
-0.07812039 -0.34715182 -0.1459999
0.012275718 -0.1464271 -0.15733138
0.018495463 -0.12784493 -0.16841581
-0.010004081 -0.19917047 -0.14100337
-0.118694834 -0.3910061 -0.15979221
-0.10393001 -0.37995556 -0.17266054
-0.11296851 -0.40440795 -0.17244214
-0.07332507 -0.31802717 -0.1583146
-0.009142481 -0.24341151 -0.15037137
-0.07655522 -0.32527283 -0.16513847
-0.13719071 -0.48435032 -0.15350325
0.012539923 -0.14267518 -0.16706929
-0.07302184 -0.32276508 -0.15587178
-0.08735135 -0.34203845 -0.15209109
-0.05934298 -0.32771033 -0.15257904
-0.09775086 -0.36614472 -0.16788812
-0.037603483 -0.26276106 -0.1504865
-0.123946115 -0.47148874 -0.14968087
-0.12625746 -0.46932402 -0.16536368
0.0015818551 -0.22045988 -0.15689218
-0.15651444 -0.47120404 -0.16177705
-0.059729926 -0.32982245 -0.16286603
-0.048654124 -0.26432645 -0.15298645
-0.03537126 -0.24095897 -0.15380917
-0.008013949 -0.24262516 -0.16028586
-0.06476015 -0.34374732 -0.1741033
-0.14008714 -0.47556606 -0.175101
-0.123904265 -0.45386457 -0.15563588
-0.116598435 -0.42021048 -0.15107857
-0.11705578 -0.39465272 -0.17118886
-0.07843767 -0.33662385 -0.14343241
-0.08762596 -0.34466124 -0.15574059
-0.011547968 -0.18282072 -0.16496655
-0.0012100413 -0.19867437 -0.17605588
0.0478298 -0.1343035 -0.14203188
0.045860067 -0.14394522 -0.15566893
-0.045428246 -0.26402712 -0.17172182
-0.113912664 -0.415506 -0.16929899
0.028706983 -0.15401955 -0.17521937
0.017302588 -0.14987773 -0.17208306
-0.10376472 -0.41847217 -0.15221424
-0.08672477 -0.3944099 -0.16798474
-0.014099285 -0.24961631 -0.16911648
0.020774044 -0.11548856 -0.1741676
-0.12245773 -0.4042285 -0.1625365
0.0102947205 -0.15083838 -0.16009948
-0.09105158 -0.4010608 -0.14714564
0.018745653 -0.19420668 -0.15920584
-0.019315012 -0.24333274 -0.1744763
-0.07331466 -0.32157263 -0.16596967
-0.13252066 -0.4706745 -0.17800298
-0.11494756 -0.4029599 -0.17181188
-0.03774946 -0.2564921 -0.15543789
-0.109893665 -0.4441787 -0.15417486
-0.12633887 -0.4721895 -0.16186962
-0.093498096 -0.40122247 -0.17717002
-0.01357083 -0.2525964 -0.1638394
-0.090792336 -0.38826227 -0.14587013
-0.14489257 -0.45492136 -0.14943434
-0.110913895 -0.429844 -0.15712826
-0.07070833 -0.33307087 -0.16822779
-0.09400055 -0.41123575 -0.1596413
-0.09367709 -0.3653576 -0.14730921
-0.039133564 -0.23972252 -0.16851848
-0.08230288 -0.39334053 -0.15735425
-0.03862591 -0.2542336 -0.16111276
0.015132122 -0.20473807 -0.14762907
-0.060902774 -0.29001224 -0.15863934
-0.11358295 -0.43248802 -0.15391377
-0.07185442 -0.2999207 -0.16810745
-0.06349988 -0.35002002 -0.166241
-0.15258263 -0.4725057 -0.14753768
-0.07605032 -0.34297395 -0.1434461
-0.15465689 -0.48776034 -0.16690488
0.018792577 -0.17835583 -0.1719404
0.0015755296 -0.21438912 -0.17616665
-0.09006582 -0.35888124 -0.16627103
-0.072376356 -0.31853256 -0.15503249
-0.029489726 -0.2667409 -0.1684287
-0.033391356 -0.285196 -0.17099965
-0.038042784 -0.30044973 -0.1566756
0.01777 -0.14244974 -0.15544613
0.002235055 -0.21908568 -0.1599392
-0.120388806 -0.40853918 -0.15467486
-0.07670317 -0.34029225 -0.14338964
0.036326125 -0.1601353 -0.16251864
0.008521438 -0.14947125 -0.16640054
-0.04500732 -0.315578 -0.15982127
0.030472562 -0.12810597 -0.13614544
-0.02421555 -0.26961762 -0.15112267
-0.017760485 -0.25376853 -0.17402217
-0.15746415 -0.4812932 -0.15929216
0.04916255 -0.1394563 -0.17086177
-0.035114884 -0.24275032 -0.15032645
-0.13412732 -0.43303335 -0.14609322
-0.046378605 -0.29154512 -0.17290726
-0.028104253 -0.22939582 -0.15454441
-0.03604436 -0.2719546 -0.14520633
0.058012947 -0.13501579 -0.16555892
-0.074999355 -0.3140044 -0.16421458
0.022091955 -0.12438662 -0.14357917
-0.020418584 -0.23021473 -0.14699173
0.031638183 -0.13225326 -0.17530882
-0.10736822 -0.39282754 -0.1412251
-0.13070455 -0.47269395 -0.17312473
-0.070417225 -0.3480016 -0.17690665
0.012203455 -0.15595986 -0.15191507
-0.15577754 -0.4626852 -0.16180882
-0.033403516 -0.29292783 -0.15774338
-0.10241012 -0.3722918 -0.16955557
-0.115154475 -0.44243455 -0.17144339
-0.1391645 -0.4825493 -0.16543499
-0.13956507 -0.45121622 -0.15233365
-0.013499796 -0.19662203 -0.15165016
-0.12710415 -0.45553863 -0.16319354
-0.11094416 -0.4104488 -0.14724806
-0.15239339 -0.46981844 -0.14603078
-0.013384923 -0.20795321 -0.14443877
-0.03108102 -0.29007834 -0.15670328
-0.095753364 -0.36496776 -0.15148337
-0.13484536 -0.46520665 -0.1764352
-0.009494089 -0.23014343 -0.16506448
0.023945972 -0.12754044 -0.14374712
-0.059355646 -0.28835848 -0.1566228
0.006951511 -0.21886046 -0.15236852
-0.13172886 -0.4404611 -0.15048495
-0.123430975 -0.40556705 -0.16549516
-0.022491418 -0.2511437 -0.14688878
-0.0022496507 -0.22282776 -0.15786996
-0.07665425 -0.34645504 -0.17404372
-0.023656577 -0.22650155 -0.15443927
0.05273676 -0.14055336 -0.16305651
-0.12019641 -0.40859798 -0.16785266
0.051117636 -0.13705525 -0.1434001
0.013174534 -0.16297245 -0.16772707
-0.0052872524 -0.23693024 -0.15341926
-0.06730965 -0.35398513 -0.16162834
0.008822501 -0.16441315 -0.15545912
-0.10498811 -0.41733488 -0.16797426
0.050365284 -0.13902512 -0.14426167
-0.025566608 -0.2690545 -0.1534435
-0.14527388 -0.48763555 -0.1705608
-0.039635614 -0.2961442 -0.16814777
-0.016504824 -0.21850872 -0.15649858
-0.042836897 -0.28796408 -0.1739153
-0.0026696995 -0.17915161 -0.15820037
-0.026489079 -0.27582502 -0.16946015
-0.10073579 -0.400952 -0.1771981
-0.0120410025 -0.22056472 -0.15246886
-0.14710584 -0.45804182 -0.14449006
-0.059035584 -0.35121888 -0.15269198
-0.13551882 -0.454699 -0.14912358
-0.09250726 -0.359705 -0.16620012
-0.025064364 -0.27848876 -0.16124019
-0.01631543 -0.20487007 -0.15396242
-0.083648175 -0.40024439 -0.15234779
-0.09711725 -0.37625274 -0.14488722
-0.08536609 -0.3322208 -0.16055597
-0.06253822 -0.34169987 -0.16238314
-0.13226 -0.43752104 -0.16633105
-0.1093226 -0.39292774 -0.17401835
0.016188204 -0.1819438 -0.1731243
-0.083196655 -0.38209203 -0.16602951
-0.0060983896 -0.2221476 -0.16742694
-0.026739344 -0.22706662 -0.15751277
-0.13413696 -0.4723603 -0.17770235
-0.096027195 -0.41090682 -0.16527307
-0.00093694776 -0.1724667 -0.166671
0.0040483847 -0.2071468 -0.1776849
-0.15577397 -0.4604115 -0.16356
-0.031952552 -0.27012232 -0.14572656
-0.15411988 -0.46247417 -0.17029557
-0.06341603 -0.3020976 -0.14246538
-0.057826303 -0.31620568 -0.14720728
-0.121029116 -0.4444399 -0.15361997
-0.017539784 -0.22610265 -0.15097289
-0.070534535 -0.35539952 -0.1532065
-0.07722091 -0.36577198 -0.15858857
-0.13057588 -0.43131554 -0.17127496
-0.08373085 -0.39492 -0.15909138
-0.11792408 -0.43765402 -0.14760517
-0.043435685 -0.2701913 -0.14300579
-0.15595451 -0.48586157 -0.16737118
-0.14595705 -0.48216912 -0.15115777
0.016368233 -0.20720753 -0.15625894
-0.081133366 -0.3709352 -0.16721356
-0.09065856 -0.33927587 -0.16348217
-0.115960784 -0.40354246 -0.14307009
-0.09367192 -0.41380337 -0.15369193
-0.07081926 -0.34671447 -0.1460035
0.014182396 -0.18371008 -0.17317101
-0.02805502 -0.24143031 -0.14412874
0.049365684 -0.13048136 -0.18422365
-0.090213984 -0.403341 -0.16507305
-0.08936074 -0.33147988 -0.16881493
0.041250795 -0.15046506 -0.15237328
-0.13709569 -0.44348222 -0.16388492
-0.051998347 -0.3215097 -0.1685723
0.011652932 -0.16424374 -0.1485888
-0.015487216 -0.2067463 -0.15166685
0.054051943 -0.13898054 -0.14454076
-0.114904664 -0.39022678 -0.1719606
-0.021568961 -0.22630426 -0.15171261
-0.14336798 -0.46126497 -0.14251378
0.009398766 -0.1936686 -0.14531814
-0.051593684 -0.29773542 -0.1459257
0.03741364 -0.1596851 -0.15946317
-0.13078307 -0.43410128 -0.17212206
-0.09253873 -0.40917373 -0.15989041
-0.14302704 -0.44998863 -0.16215284
-0.119318046 -0.39775932 -0.15508446
-0.00659506 -0.22107382 -0.15306261
-0.040500358 -0.2946676 -0.17289649
-0.12464371 -0.46890715 -0.1596593
-0.008628219 -0.2504732 -0.15277028
-0.0066328943 -0.21562691 -0.1707025
-0.049049705 -0.263284 -0.15529408
-0.024903491 -0.2580346 -0.17263573
-0.11712296 -0.43515474 -0.15174028
0.03296964 -0.15754282 -0.17480886
-0.011532955 -0.2432462 -0.1495073
0.023239464 -0.15710819 -0.17352392
-0.12737544 -0.42418057 -0.16053456
-0.04988484 -0.28594556 -0.14538288
-0.13322653 -0.47864282 -0.16734031
-0.061160237 -0.33027107 -0.16595875
-0.07441594 -0.31277105 -0.1618146
-0.13199085 -0.4521516 -0.16711533
-0.087692685 -0.35190287 -0.16474313
-0.079737015 -0.36394233 -0.16763501
-0.0986712 -0.36587906 -0.15628651
-0.080421865 -0.35656044 -0.15298057
-0.021263853 -0.26051387 -0.15241379
-0.09344241 -0.40679574 -0.16658369
-0.0703384 -0.30936384 -0.15292905
-0.05892794 -0.30575877 -0.17312409
-0.005590312 -0.2234621 -0.15455525
-0.0822362 -0.39569783 -0.1539319
-0.011926167 -0.18499403 -0.16197692
-0.13670821 -0.42949447 -0.15924463
-0.017059132 -0.2382358 -0.14746647
-0.11430904 -0.43727788 -0.16779521
-0.010747604 -0.23185511 -0.17068353
-0.037698567 -0.24766219 -0.1505808
0.017499216 -0.18039049 -0.15074499
-0.071067855 -0.32273436 -0.1668024
0.053844057 -0.1396375 -0.16501002
-0.07775214 -0.36003083 -0.15424533
-0.08328147 -0.38560927 -0.16390252
0.039909393 -0.16162503 -0.15066585
0.016638033 -0.1213551 -0.16191909
-0.12117 -0.40156233 -0.16906704
-0.08474399 -0.36754864 -0.17054951
0.018332265 -0.12160969 -0.15450332
-0.09455526 -0.38943392 -0.17758182
-0.101483315 -0.41152263 -0.14862065
-0.042759687 -0.30079436 -0.17115688
0.022336937 -0.1513229 -0.14448854
-0.13970833 -0.4601647 -0.144538
-0.053388387 -0.2910385 -0.14581275
-0.14256641 -0.49204233 -0.15365046
-0.0010665879 -0.18011518 -0.15243576
-0.08606385 -0.39969698 -0.15987805
-0.14364016 -0.48482662 -0.17071757
-0.098591164 -0.41095033 -0.17141786
-0.01864814 -0.23108923 -0.17054828
-0.08145502 -0.3678807 -0.17028737
-0.112480715 -0.43514374 -0.15707642
0.0033760369 -0.18592763 -0.17248854
-0.055073336 -0.3225878 -0.1731311
-0.04294864 -0.26168674 -0.14117199
0.03351681 -0.16535687 -0.15576592
-0.13000673 -0.42743754 -0.1590246
-0.10145053 -0.3692773 -0.15538609
0.01538194 -0.12072733 -0.17299342
0.014516152 -0.14169358 -0.16513726
0.019491002 -0.17858662 -0.16967322
-0.016189009 -0.2601143 -0.15987924
-0.092193976 -0.41351914 -0.15089092
0.008840926 -0.20085326 -0.17965528
0.01492212 -0.11878262 -0.16777155
-0.095809706 -0.38656294 -0.1767493
-0.117926575 -0.39433417 -0.15430035
-0.11864825 -0.4449835 -0.15819813
-0.119554445 -0.411848 -0.15116002
0.020039447 -0.16052717 -0.17139012
0.01138939 -0.17170106 -0.14827079
-0.05932366 -0.2854987 -0.15974939
-0.12644659 -0.44809526 -0.16973677
0.0048142225 -0.21667784 -0.16319476
-0.07989998 -0.34576824 -0.14505975
0.0010106862 -0.18043388 -0.14664926
0.020277657 -0.1249554 -0.17264381
-0.0342149 -0.27672154 -0.14682716
-0.0053375587 -0.17847854 -0.16736975
-0.044651985 -0.316867 -0.15061125
-0.072883636 -0.31321558 -0.15642676
0.031104028 -0.12090536 -0.13446848
-0.092653766 -0.3843274 -0.14593074
-0.071983196 -0.3069266 -0.16060027
-0.039726138 -0.2616151 -0.1675815
-0.0080145225 -0.22508457 -0.16556561
-0.15585995 -0.4699903 -0.16855973
0.028427422 -0.12858787 -0.13787945
-0.036660217 -0.25179404 -0.16840114
-0.049011298 -0.2572104 -0.16439342
-0.018172488 -0.2207048 -0.16446523
-0.018223152 -0.22836247 -0.14936113
-0.08811794 -0.34258127 -0.15478423
0.030944735 -0.13699384 -0.14597678
-0.08459072 -0.38444078 -0.14935927
-0.124411285 -0.47526944 -0.15236172
-0.090664685 -0.38814378 -0.17823696
0.019131966 -0.20601492 -0.15104511
0.0612472 -0.13671175 -0.15049337
-0.017300606 -0.2418037 -0.14754568
0.0017907172 -0.18961865 -0.1425115
-0.040333495 -0.3019752 -0.16274807
-0.12398042 -0.46882892 -0.15732467
0.030114092 -0.16233382 -0.14981666
0.035183482 -0.12629524 -0.18041322
-0.019752532 -0.25961393 -0.15020655
0.009260513 -0.14643255 -0.16516292
0.011127487 -0.14904809 -0.15807797
0.050992414 -0.14046384 -0.14626986
0.004216127 -0.17291951 -0.16797581
-0.08065839 -0.33614114 -0.17209695
-0.041463017 -0.3002283 -0.16640279
-0.0217413 -0.2795232 -0.15096745
-0.12862518 -0.4652624 -0.14887063
-0.14160722 -0.48178518 -0.15178299
-0.07552811 -0.3088629 -0.16761032
0.009589814 -0.15545723 -0.16061999
-0.04996831 -0.28094685 -0.17110585
-0.12424149 -0.44142914 -0.17461507
-0.041141815 -0.24189715 -0.1684206
-0.054059483 -0.27865228 -0.15236205
-0.112071894 -0.4380033 -0.1561012
-0.101704426 -0.41376385 -0.14982219
-0.024623983 -0.23050082 -0.1447297
-0.10001589 -0.4049103 -0.14640054
-0.0023430586 -0.332867 0.06829668
-0.034965143 -0.40587392 0.078244895
-0.061800383 -0.4651844 0.06429914
0.05770023 -0.27381632 0.06393817
0.089385495 -0.20899266 0.06524361
0.05397857 -0.2903624 0.072713606
-0.022995181 -0.39974815 0.06627109
-0.0363658 -0.41134232 0.08682785
-0.06489819 -0.50970703 0.05898125
0.05288648 -0.28167415 0.08577335
0.08666589 -0.15951997 0.06207323
0.012477241 -0.30537832 0.06850639
0.007846758 -0.35094488 0.0880546
0.031778596 -0.28329355 0.06383971
0.019186758 -0.30350578 0.06366452
0.04276645 -0.29130137 0.059663605
-0.024390414 -0.4311659 0.054989025
0.08666894 -0.18822171 0.090697065
0.03297116 -0.3303467 0.07624455
-0.086783096 -0.51825017 0.08488838
-0.005440563 -0.3897509 0.066906236
-0.052737318 -0.43239588 0.07485658
0.07203339 -0.22583288 0.09112174
0.0062125996 -0.32721266 0.07956205
0.07950523 -0.2265673 0.05841822
0.043326423 -0.30654737 0.06244712
-0.083454475 -0.51660424 0.06699829
-0.059121855 -0.47910193 0.0820977
0.06672046 -0.21360447 0.06632069
0.05064301 -0.2306923 0.070474654
-0.07007609 -0.5155651 0.061581217
-0.059746273 -0.4697509 0.061713852
-0.07967677 -0.5121482 0.06417043
0.08768897 -0.21544543 0.06731497
-0.071176484 -0.4671098 0.07352634
-0.0129636675 -0.4052774 0.067535296
0.061379787 -0.25723833 0.065062895
-0.045043252 -0.41057143 0.06529047
0.09782733 -0.17379346 0.06280244
-0.055092484 -0.45426437 0.078022815
-0.04639499 -0.4669953 0.08087409
0.030714944 -0.28060746 0.08251828
-0.0063605085 -0.3563051 0.0739121
-0.012761325 -0.4290438 0.08266598
0.031742096 -0.29232502 0.06820869
-0.052208073 -0.47227174 0.08768478
-0.06982742 -0.51777124 0.08265747
-0.057247214 -0.47657388 0.06025769
-0.019858338 -0.41204265 0.060917314
0.10008339 -0.17750788 0.08593193
-0.080130294 -0.5185564 0.08340177
0.030823372 -0.33516303 0.07903029
0.010905072 -0.31646663 0.076479
-0.047356516 -0.43508658 0.09293366
0.097778514 -0.1647679 0.096365415
0.04602 -0.3106628 0.075774975
0.089726314 -0.20519939 0.082667634
0.0031320006 -0.34035102 0.063399866
0.07758772 -0.23186925 0.08899742
0.08188826 -0.17888993 0.07229707
-0.051623374 -0.4799095 0.06114771
0.0547898 -0.22615431 0.07949878
0.08666174 -0.15755644 0.08175449
0.060620442 -0.27272418 0.07368267
0.030940041 -0.32643268 0.084803976
-0.07371906 -0.49257848 0.06346549
-0.020501904 -0.37271243 0.079236895
-0.004503235 -0.36994454 0.085372165
-0.032905474 -0.42288527 0.09187323
-0.019841 -0.44115752 0.08529051
0.050321296 -0.2633049 0.08436321
0.021560557 -0.34205544 0.086586885
0.00639724 -0.3282372 0.08304092
-0.0046410337 -0.35814437 0.08006154
-0.040376335 -0.44810516 0.061667122
0.01874116 -0.34897405 0.06054002
0.0057779625 -0.37578285 0.074821524
0.09061192 -0.15260237 0.085585184
-0.08805207 -0.49357396 0.06714134
-0.072837055 -0.4944625 0.062218986
-0.08995263 -0.50143135 0.06900416
-0.026594311 -0.4407723 0.06253048
-0.07567975 -0.48883608 0.08287425
-0.04573168 -0.47246307 0.08142792
-0.055745035 -0.47080296 0.060572263
-0.009886786 -0.40598667 0.07755977
-0.05577063 -0.4747734 0.08906713
-0.022938013 -0.37577653 0.07062516
-0.06703237 -0.5104934 0.057262354
0.10143531 -0.20083565 0.07873438
-0.019129314 -0.38135254 0.079892844
-0.040561378 -0.41606647 0.08846666
0.111863144 -0.1759533 0.086076595
0.10462765 -0.18678999 0.06907982
0.029220276 -0.29717526 0.08295433
-0.023734078 -0.3749205 0.06789237
0.01654198 -0.3043518 0.064517364
-0.05885516 -0.48771113 0.080174
-0.012196571 -0.40511346 0.06980266
0.07145281 -0.20831297 0.06671502
-0.0168605 -0.41414323 0.061475683
0.08871987 -0.22015852 0.07534414
-0.0072736815 -0.38526413 0.060770955
0.04319551 -0.304927 0.08367199
-0.076198116 -0.50311035 0.091122314
-0.0011393577 -0.38856435 0.06663793
-0.05740691 -0.48738107 0.072664484
-0.009893529 -0.41109008 0.081005886
0.015893959 -0.34689975 0.08700898
-0.019527882 -0.43276235 0.068091825
0.05156744 -0.25084043 0.07873039
0.08809008 -0.21232611 0.06510168
-0.015489012 -0.3670033 0.07314104
0.06998764 -0.20779912 0.07596846
-0.018569618 -0.3764379 0.08580017
-0.063316405 -0.49646387 0.060646776
-0.013850585 -0.3682694 0.08053656
-0.0033718646 -0.3549095 0.08360013
-0.052824557 -0.47917378 0.06804233
0.012324765 -0.33719662 0.0607252
-0.063549444 -0.47093958 0.09193939
-0.0016087294 -0.39089763 0.076362416
0.031339884 -0.28883442 0.08045031
0.050181083 -0.2372763 0.074279934
0.1109435 -0.16277133 0.09468427
0.062021017 -0.273458 0.07852629
-0.017138615 -0.41712388 0.06263794
0.07646055 -0.18278384 0.067616805
0.08299385 -0.18239161 0.08412212
-0.015231289 -0.39734223 0.06596114
0.121341005 -0.1750274 0.068361335
0.07742767 -0.25298202 0.083095625
0.008018985 -0.36981878 0.07829449
0.051915362 -0.23625857 0.06440175
-0.06499081 -0.4762072 0.080665305
0.03478142 -0.32198697 0.06650471
-0.0141264945 -0.42559797 0.07744178
0.10924653 -0.16556746 0.094983175
-0.0038327873 -0.37885618 0.058136854
0.08441566 -0.15477632 0.071873024
0.038582303 -0.30002975 0.08157058
0.04560083 -0.29764137 0.080042586
-0.017334655 -0.43740177 0.08570921
-0.04812052 -0.4687152 0.06539565
-0.021353982 -0.3721499 0.07629509
0.07260251 -0.252304 0.071445204
0.09338104 -0.17468436 0.06495055
-0.055229597 -0.46773842 0.064998895
0.08506939 -0.15716462 0.060693074
0.026803553 -0.29279143 0.07096355
0.06164543 -0.23428337 0.09297502
0.093551725 -0.20467658 0.07109089
-0.04420644 -0.47418275 0.083258346
0.05457422 -0.28284055 0.06476922
0.027817361 -0.34540802 0.07841514
0.071782485 -0.2556376 0.08079718
0.084930375 -0.22359386 0.06783689
0.03015589 -0.29114932 0.07795219
-0.056838997 -0.45437226 0.06964709
0.018109404 -0.32089666 0.063077085
0.009499021 -0.38691878 0.08411057
0.019230254 -0.31823367 0.06284191
0.11769246 -0.17640895 0.07204813
-0.056413397 -0.50024676 0.07669008
0.08166914 -0.23464131 0.0608822
0.068347186 -0.23022778 0.092326865
-0.06547266 -0.49176818 0.0640714
0.02542448 -0.32275012 0.08703424
0.032399967 -0.28016883 0.086270876
0.016663551 -0.3237955 0.06340968
0.010482885 -0.35064662 0.060338475
-0.02069538 -0.37762052 0.07835004
-0.06112267 -0.49723288 0.060462303
0.081287116 -0.23351589 0.05860589
0.04165408 -0.29937282 0.06971392
-0.015307665 -0.41719705 0.06836571
-0.00028203428 -0.3705176 0.08299609
0.056332953 -0.21864538 0.07015434
-0.04518637 -0.45753238 0.0821465
0.053508148 -0.25891444 0.068471566
0.123149045 -0.17621614 0.074955046
-0.042593174 -0.420628 0.090246156
-0.081894025 -0.5157288 0.08475111
0.084485665 -0.21683753 0.061464775
-0.020633116 -0.38528746 0.070769146
0.013597615 -0.3586932 0.08445971
0.04082097 -0.3013286 0.08071572
0.09155307 -0.18514934 0.062187344
-0.089467 -0.5025578 0.07134713
0.022142246 -0.34848776 0.06839658
0.078198954 -0.23664308 0.088663265
0.027925521 -0.29708415 0.085874975
-0.020975262 -0.375254 0.07747837
0.050532825 -0.28167146 0.08651267
0.012216538 -0.3485989 0.08746204
-0.069417916 -0.49516395 0.08842158
-0.06726298 -0.46550554 0.08008538
0.050414085 -0.24442066 0.07496674
-0.05377154 -0.4351963 0.07384521
-0.06676073 -0.49502534 0.08691268
0.020073675 -0.33320814 0.086358055
0.021137938 -0.34478474 0.0594598
0.00080797076 -0.34165654 0.08721593
0.08028549 -0.19980504 0.06691356
0.036335 -0.30151096 0.083372965
0.04251097 -0.30539912 0.059508808
0.06978171 -0.24971303 0.058179
0.098629974 -0.20327151 0.07864399
0.10302974 -0.16770957 0.09412794
0.06093374 -0.21867974 0.08000155
0.032837562 -0.32130957 0.08562449
-0.009979077 -0.39706397 0.07120846
0.0891389 -0.1513375 0.056731157
0.046854123 -0.28468424 0.059318904
0.05122693 -0.27361214 0.06063572
0.038620025 -0.3027335 0.06529699
0.07589746 -0.21648689 0.08708339
0.07421641 -0.206804 0.08492591
0.051705237 -0.23306206 0.06431146
0.0031951591 -0.37249613 0.06699424
0.07076004 -0.25266403 0.06936906
0.029973075 -0.33471453 0.07608659
-0.014470294 -0.42013395 0.07295969
0.123635955 -0.16942695 0.06747619
-0.0047718138 -0.35211158 0.06696932
0.022631012 -0.30918324 0.062182225
0.04841456 -0.27300203 0.08791578
-0.033277556 -0.41589555 0.061421983
-0.0029642433 -0.3812447 0.08914601
0.09315094 -0.16165224 0.058037166
0.020101093 -0.33952078 0.0872329
0.10062151 -0.16762106 0.05794472
-0.08974244 -0.49955323 0.065699205
-0.041509494 -0.41084248 0.07389918
-0.027769916 -0.4188947 0.059329495
-0.06123504 -0.46480492 0.08467685
0.073522665 -0.21695244 0.06387378
-0.044239953 -0.47488254 0.06944346
-0.046756193 -0.48219085 0.073835954
-0.051221013 -0.42740828 0.07449451
-0.0341004 -0.43538582 0.09003755
-0.0831389 -0.49145043 0.07628822
0.07709067 -0.22481067 0.05967761
0.0014496744 -0.3826953 0.056277376
0.098882824 -0.19354545 0.057498507
0.08885342 -0.16637553 0.07565747
-0.015652567 -0.37405995 0.061943382
-0.014051706 -0.41716588 0.07223943
0.018039763 -0.3057145 0.084834695
-0.060719296 -0.4809837 0.067874074
0.03630852 -0.3019823 0.0888578
0.0051023066 -0.37506956 0.07268955
-0.06348076 -0.48048317 0.06884971
-0.06972813 -0.5181941 0.07181773
-0.046568513 -0.4232853 0.084217876
-0.071526445 -0.49442908 0.08932664
0.10522631 -0.1712955 0.08985167
-0.059787408 -0.5129031 0.0846342
-0.02109547 -0.43986982 0.07444505
0.11862281 -0.17874834 0.0841761
-0.044854 -0.48102584 0.07343247
0.071385294 -0.20298268 0.07101681
0.019427553 -0.30417448 0.087079786
0.017894685 -0.33241534 0.08729532
-0.017441481 -0.3885595 0.08345482
0.006160207 -0.33633637 0.09195731
-0.05952397 -0.48916787 0.068815224
0.108805574 -0.16804513 0.05148212
0.05759394 -0.2863637 0.07768707
0.07616618 -0.25246716 0.07903433
0.0803979 -0.2482084 0.08037059
-0.016970687 -0.39896813 0.083324805
0.0017012209 -0.37962317 0.056936998
0.076338075 -0.19370456 0.06805422
0.035176747 -0.27020204 0.0779697
0.08413863 -0.23034683 0.066127785
-0.03705363 -0.45208827 0.083449475
-0.0053891465 -0.346729 0.07649787
-0.034362294 -0.44186696 0.088152096
-0.017787762 -0.37080017 0.08283512
0.030283399 -0.29743358 0.068173125
0.06336655 -0.2178363 0.081503674
-0.07183072 -0.5060665 0.058908634
-0.018426575 -0.42635578 0.087001905
-0.087989725 -0.51527476 0.068737626
-0.043662645 -0.43688613 0.09161262
0.000671342 -0.33334768 0.07748138
-0.050901048 -0.47101352 0.05988179
-0.067923464 -0.4922741 0.06349611
-0.049325988 -0.4183474 0.069093235
-0.013414465 -0.36900106 0.06517821
-0.05940257 -0.5141767 0.0812914
0.045503505 -0.30564675 0.071979344
-0.034444854 -0.44270077 0.05785052
0.0009506792 -0.38780546 0.068120405
0.024481215 -0.29542267 0.063419774
-0.05867987 -0.48617572 0.067620255
0.07337324 -0.25002292 0.067367256
0.0418265 -0.28026932 0.06152709
-0.030956462 -0.4095408 0.0901082
0.03589183 -0.32257062 0.08458298
0.09089528 -0.16098228 0.09275561
0.07239341 -0.21933287 0.08826245
-0.074999005 -0.5292306 0.07678577
0.020738743 -0.30705416 0.06294213
0.01661446 -0.31261784 0.08851673
-0.021549061 -0.4151314 0.059974294
0.004301004 -0.3360564 0.06323528
0.056588314 -0.267726 0.063544765
-0.014519274 -0.42823705 0.08551854
0.057927184 -0.21676522 0.06850457
-0.01076138 -0.389053 0.08167645
0.025666311 -0.32547015 0.06025729
-0.06631133 -0.5156489 0.084772274
0.012881182 -0.31737527 0.08316765
-0.058340177 -0.5022675 0.06972973
0.05092268 -0.26557434 0.085156605
-0.07135722 -0.48542714 0.06911545
0.08775683 -0.21720563 0.06941311
0.023323208 -0.2946662 0.07048822
-0.02004014 -0.43700883 0.071692824
0.1067839 -0.19461212 0.08023794
0.12086016 -0.16797139 0.06897938
-0.023083702 -0.42311814 0.08851826
0.018814988 -0.355789 0.072348446
-0.043644153 -0.46853966 0.07985346
-0.06981906 -0.49059367 0.064699225
-0.081848785 -0.5259392 0.074491054
0.04674142 -0.29658517 0.07536683
0.038884364 -0.3140451 0.085988104
0.04354442 -0.29366276 0.08457189
0.09247455 -0.15367573 0.09216285
-0.029053777 -0.40123877 0.081940874
0.03444451 -0.3004059 0.060008507
0.03612449 -0.30142558 0.06525107
-0.040665142 -0.45961457 0.07406969
0.021064483 -0.34871295 0.06602847
-0.08636467 -0.50780946 0.080924064
-0.04770133 -0.4467817 0.087225355
-0.03783218 -0.45642194 0.074387535
-0.08093646 -0.4965642 0.09065482
-0.0030916631 -0.38873786 0.065156
-0.0703307 -0.50890386 0.058487985
0.0061429814 -0.33413976 0.06295954
0.024379186 -0.3491742 0.07529281
-0.03907866 -0.41191795 0.08177499
-0.057358854 -0.4578244 0.07632026
-0.06266684 -0.49448285 0.061939765
0.022505492 -0.3436161 0.061185814
0.08393373 -0.17640212 0.07210423
0.046096213 -0.26248258 0.084665455
0.014116399 -0.31332245 0.08214784
0.024358757 -0.29519737 0.07531807
-0.05426637 -0.4303553 0.065167055
0.04795093 -0.25772366 0.0701032
-0.011923835 -0.41141665 0.07493273
0.09575708 -0.19032902 0.088098794
0.028728783 -0.32225254 0.086370274
-0.010742642 -0.37036008 0.06423857
0.11658158 -0.1657278 0.09471739
-0.0422121 -0.46029198 0.07154694
0.038204916 -0.26877195 0.08360981
-0.00061491877 -0.37592724 0.08622791
0.01470425 -0.29987112 0.068693236
0.0042569265 -0.3317819 0.08446267
-0.047640696 -0.4188951 0.06358178
0.0874301 -0.23810738 0.08125982
-0.018863156 -0.3905867 0.06896168
0.083408885 -0.17978592 0.077824414
0.021305889 -0.35525215 0.08364105
0.058401514 -0.24484351 0.089390345
-0.08072183 -0.51016754 0.088363074
-0.08999395 -0.5216681 0.07464303
0.03951031 -0.296023 0.06540727
0.0194318 -0.2985892 0.080806956
0.080167644 -0.18913898 0.082130566
0.010740399 -0.35296392 0.059933387
0.07542886 -0.24054392 0.08823822
-0.06581034 -0.4720264 0.06318998
-0.05618774 -0.45048532 0.07120538
0.057607017 -0.21875328 0.07354537
0.049575876 -0.2568985 0.07737689
0.051867474 -0.22757344 0.07173105
0.06568176 -0.22975783 0.059156198
-0.07989314 -0.4974473 0.062248077
-0.088735506 -0.52168363 0.08603681
0.03634365 -0.32499507 0.07566975
-0.05588586 -0.45450586 0.075901374
-0.0067916363 -0.34983996 0.067244396
0.0836265 -0.18481293 0.09172705
-0.011984818 -0.3752541 0.06087792
0.091764346 -0.17228752 0.0873238
0.054733515 -0.25331926 0.083790496
0.041315943 -0.311984 0.06602037
0.036343083 -0.2699319 0.080621004
-0.014327541 -0.42280072 0.075214766
-0.022006154 -0.3702845 0.071918756
0.036815226 -0.26809454 0.07890214
-0.019526914 -0.38228217 0.07674706
-0.058395013 -0.5107008 0.07701375
0.0040994585 -0.36302224 0.08249746
-0.044918537 -0.47273102 0.07724452
-0.06593805 -0.46385434 0.06484239
-0.038008437 -0.43082815 0.09222965
-0.029393464 -0.41607612 0.09005063
0.051391855 -0.2875391 0.06189767
0.016866751 -0.3612583 0.082660876
0.10937681 -0.17932242 0.06907953
0.04043933 -0.28952748 0.08836235
0.05404319 -0.26816928 0.06302036
0.0860883 -0.18257892 0.090891376
-0.021955535 -0.43778628 0.068410605
0.032552153 -0.29955494 0.083772555
-0.0034481362 -0.34057143 0.065626055
-0.0035833046 -0.35163736 0.08266715
0.07105693 -0.20591587 0.075357355
-0.021623619 -0.39293036 0.0687363
0.052318055 -0.25324273 0.06908602
-0.059515156 -0.475743 0.086526155
0.049948946 -0.28493947 0.05845006
-0.018464498 -0.39876536 0.065924495
-0.042944297 -0.4302348 0.06101521
0.015960395 -0.29513237 0.06696098
0.013169691 -0.31225732 0.07823457
-0.015931293 -0.4342097 0.08002562
0.028685257 -0.30938077 0.08957912
0.032444112 -0.2780031 0.08299385
0.035417214 -0.26379645 0.0671924
0.010514207 -0.35107923 0.08725049
0.024716645 -0.33337575 0.060348023
-0.013258666 -0.40393716 0.08223088
0.1172743 -0.17106901 0.05170382
0.067936234 -0.21989983 0.090993315
-0.028449513 -0.40354264 0.08833015
-0.06415531 -0.46316054 0.073259726
0.09354234 -0.17199361 0.08937915
0.02246917 -0.29984528 0.09092962
0.045969017 -0.28799617 0.08728689
-0.06333092 -0.4646343 0.08800541
0.067263156 -0.20972636 0.07255106
0.006900929 -0.3821933 0.08512596
0.043795362 -0.2918376 0.08698809
-0.055191934 -0.50895095 0.08429408
-0.026561081 -0.43753177 0.05653809
0.095581815 -0.19750586 0.08514923
-0.035676546 -0.40737998 0.07985288
0.02219294 -0.29481912 0.08296549
-0.014862381 -0.36732394 0.07527386
0.11259029 -0.16809931 0.093632124
0.041005336 -0.2757543 0.06264291
-0.009206653 -0.3775453 0.09140894
0.02580592 -0.29537892 0.08972739
-0.08182364 -0.49574 0.06307636
0.02969066 -0.33921826 0.08318277
0.09662171 -0.20404038 0.07618198
0.035142288 -0.31647372 0.05795301
0.048211627 -0.29017287 0.057875823
-0.08430298 -0.49887872 0.08434382
-0.0038749576 -0.35649008 0.06758283
0.085502654 -0.24101277 0.08595681
0.05679211 -0.27337432 0.084770486
0.016049393 -0.29727775 0.06963045
0.06608266 -0.22441013 0.060558178
-0.0045944676 -0.36639026 0.08418013
-0.07814516 -0.52353454 0.06444354
0.025036037 -0.31586948 0.08883696
0.053482346 -0.2296261 0.06341934
0.06971277 -0.20411433 0.0687751
-0.077554524 -0.51249045 0.06293382
0.05123294 -0.2623752 0.06761116
0.029776387 -0.28628993 0.0808302
-0.03371709 -0.40012357 0.06869522
0.034108967 -0.31923777 0.060062423
-0.067872554 -0.4710548 0.06438093
0.019043207 -0.3498984 0.06290059
0.11896151 -0.17616114 0.088096924
-0.014351517 -0.3818275 0.08900457
-0.005314663 -0.35611778 0.077367336
-0.073870994 -0.51679033 0.06297198
0.00026974082 -0.33871403 0.082363546
0.09933619 -0.16397646 0.05483789
0.045885853 -0.27083832 0.06259623
0.03987784 -0.26721644 0.08470033
-0.030937701 -0.4381213 0.08854872
0.09046401 -0.15862976 0.093755364
0.0041207597 -0.38031858 0.06342378
0.08418644 -0.1525751 0.068121165
-0.057600208 -0.49710286 0.082558915
0.008513793 -0.35830566 0.061774615
0.05510313 -0.26956868 0.08455098
0.030287482 -0.2983582 0.08494778
0.05243703 -0.2394692 0.08288037
0.0677484 -0.25673673 0.07631597
0.08252783 -0.22336039 0.08455642
0.08760485 -0.17073889 0.07317366
-0.075194545 -0.4867827 0.076867595
0.089207076 -0.22143643 0.08222486
-0.029363252 -0.44561005 0.08597261
0.08628302 -0.18625656 0.06201708
-0.03188269 -0.41789466 0.09160902
-0.058201358 -0.45655483 0.071997434
0.05438337 -0.2185107 0.06502091
-0.0061149374 -0.35462174 0.068241425
0.039693594 -0.27276713 0.06358436
-0.03996569 -0.42642558 0.059937567
-0.050744228 -0.48027387 0.07430488
0.06979093 -0.25156215 0.08463508
0.06524767 -0.25535637 0.06747565
-0.06147039 -0.4992585 0.059042174
0.08898163 -0.15447748 0.083830476
0.09366944 -0.200692 0.061545797
0.031141914 -0.29172623 0.08145033
0.01666791 -0.3594156 0.08394672
-0.0440714 -0.42241052 0.08948694
-0.055124424 -0.4393005 0.07022411
-0.05249679 -0.45843628 0.06799604
-0.041730776 -0.41008276 0.07164098
0.00781253 -0.36515334 0.07053357
-0.051386207 -0.43837625 0.082515806
-0.070708275 -0.51296127 0.058900703
0.08558473 -0.19302106 0.06360912
0.022452757 -0.33360818 0.060792957
-0.0036173984 -0.37626415 0.08881183
-0.0064308345 -0.37711447 0.0902151
0.08217345 -0.2478843 0.08393326
-0.02124966 -0.3814702 0.07065041
-0.054465584 -0.48036468 0.080903165
-0.05402621 -0.46335196 0.06716606
-0.047847718 -0.46227005 0.08164579
-0.06773188 -0.48826382 0.06695248
0.04455445 -0.27932948 0.06099336
0.086788625 -0.23530668 0.07649787
-0.042034984 -0.433865 0.06066783
0.06003318 -0.28029776 0.083648056
-0.05342657 -0.44555676 0.077270746
-0.02222851 -0.44480792 0.080898695
-0.01693143 -0.43501607 0.085717335
-0.019138917 -0.42217597 0.059867676
-0.06373921 -0.46362132 0.07753635
0.08984469 -0.21851021 0.07685903
0.015674591 -0.35162532 0.058518834
-0.056110382 -0.48328152 0.070769094
0.037854 -0.3076905 0.08781278
0.02836778 -0.2969505 0.080264635
0.023393385 -0.31794977 0.08871171
0.085153654 -0.23601486 0.072461426
-0.036675476 -0.43335107 0.09119197
0.11695713 -0.16826677 0.049090922
0.07873902 -0.18369722 0.07538545
0.031037658 -0.30588746 0.089886144
-0.014580123 -0.40049255 0.06461385
0.022942618 -0.31374007 0.061826136
0.07315133 -0.24785906 0.062397785
0.088718325 -0.1920546 0.06196546
0.020976871 -0.32311106 0.08800487
0.049387876 -0.23178048 0.06751728
0.029912986 -0.28738266 0.07811956
0.035674557 -0.27313846 0.0645728
0.06671451 -0.21777982 0.08717133
0.03767124 -0.32213476 0.074146524
-0.086389594 -0.52355814 0.0714597
-0.015454464 -0.42231894 0.08481393
0.06404062 -0.24446698 0.08889954
-0.03428109 -0.45539957 0.08141584
-0.0688193 -0.46790996 0.080936566
0.10594814 -0.18379119 0.06919925
-0.024630122 -0.40486684 0.06451891
0.058648713 -0.26243258 0.06766537
0.02376499 -0.29471374 0.07822719
-0.062301695 -0.5033666 0.056314047
-0.04206065 -0.44546312 0.061863963
-0.058952913 -0.4607107 0.07715215
0.0694928 -0.22987251 0.058276087
0.08110763 -0.19596629 0.06625029
0.07921219 -0.2115172 0.08606799
0.0988574 -0.15643366 0.09913483
0.035065062 -0.2850879 0.06262381
0.084579736 -0.19091475 0.063684456
-0.06100197 -0.46233588 0.06854929
0.119650066 -0.17046261 0.09123189
-0.08280953 -0.5110584 0.087359756
0.010839425 -0.35602456 0.059536744
0.018188678 -0.33255965 0.061549373
-0.08791664 -0.5184349 0.08246901
-0.01458776 -0.43302262 0.08250993
0.041261263 -0.3187263 0.07746716
0.095264345 -0.20060784 0.083663076
0.058770146 -0.22349364 0.085050136
0.06081891 -0.22624594 0.061217733
-0.048390478 -0.41911542 0.0728012
-0.05705501 -0.47704944 0.0862021
0.09079711 -0.15220702 0.07738623
0.0655588 -0.22041923 0.092661895
0.005059138 -0.3663777 0.06513983
-0.056816466 -0.4531953 0.07190609
0.034318365 -0.3163993 0.08649161
-0.062921695 -0.47396058 0.06483245
-0.037108086 -0.4576301 0.0790596
0.0110973865 -0.314303 0.07459527
-0.091046244 -0.51872164 0.07535748
-0.044103228 -0.47992167 0.08474961
-0.082558125 -0.5123067 0.066217735
-0.039810136 -0.41298088 0.06354692
0.08796197 -0.2170831 0.082801685
-0.053623907 -0.46976715 0.06047546
0.026569404 -0.35007024 0.083677076
-0.008111276 -0.39517072 0.07421547
-0.05896 -0.47287017 0.090239614
0.029859923 -0.34285492 0.083743095
-0.05761698 -0.4915105 0.07701607
-0.0019532293 -0.34385645 0.08176836
-0.058528945 -0.49587023 0.07034165
0.0248968 -0.33640993 0.06274299
0.098469466 -0.1649665 0.056757737
0.056080177 -0.2362885 0.06274918
-0.047719926 -0.42378023 0.08130211
0.093071386 -0.21316624 0.08040922
0.08781621 -0.1564076 0.08341476
-0.06275994 -0.46422362 0.06625624
0.025009163 -0.33269083 0.08466296
0.01851724 -0.29745933 0.076911345
0.015623882 -0.3022417 0.07399739
0.05270521 -0.2521774 0.08269483
-0.013813131 -0.37065935 0.06331519
0.04344634 -0.30518213 0.072935134
0.06929339 -0.24052867 0.05773085
0.07602677 -0.21414296 0.087094575
0.078484364 -0.2094681 0.064787954
0.018820137 -0.35183746 0.06566647
0.07208853 -0.20947477 0.08424378
0.0054829493 -0.32453865 0.07002348
0.053532258 -0.24865353 0.08539254
-0.06151527 -0.49455678 0.08371716
0.08467735 -0.23835896 0.07349208
0.07648122 -0.22272173 0.08709794
-0.051126257 -0.42340836 0.06404198
0.077809416 -0.24987495 0.07762846
0.051064663 -0.27770615 0.059594985
-0.011998862 -0.39999127 0.066933885
-0.00770206 -0.34837893 0.0687002
-0.015300393 -0.42021942 0.07044373
0.08819805 -0.21088034 0.08297027
0.04934004 -0.2908448 0.060456492
0.08695907 -0.15883736 0.0793909
0.10036114 -0.16181421 0.09812222
0.059654288 -0.23134172 0.061061088
-0.03099922 -0.4016645 0.07834333
0.070395306 -0.25141817 0.06469314
0.030132629 -0.32643533 0.062266096
-0.0532754 -0.44241554 0.07708718
0.089571 -0.22353992 0.081316665
-0.06406721 -0.47316003 0.09025833
-0.046320446 -0.4697124 0.081147365
0.026511855 -0.33871382 0.06800929
0.04206471 -0.26236477 0.07766724
-0.08372734 -0.5220539 0.0660455
0.08274991 -0.17936607 0.06611216
0.08852901 -0.18583001 0.061984733
0.018839642 -0.29465848 0.07437851
0.08864688 -0.23447889 0.084997006
0.09092851 -0.16887596 0.065094486
0.0037394688 -0.3786682 0.08497552
-0.08728774 -0.51982397 0.06747283
-0.035323516 -0.42395544 0.09258487
0.001744613 -0.3418216 0.09008636
-0.014325693 -0.37998354 0.062769085
0.09950655 -0.17753941 0.06273797
0.01461269 -0.3202597 0.06430138
0.055321127 -0.27754745 0.06026736
-0.041860066 -0.4092549 0.06954846
0.0893141 -0.2214748 0.078435495
0.08523456 -0.22826912 0.07102035
-0.046097845 -0.47597414 0.06489754
-0.0528917 -0.46285346 0.08331321
0.037919745 -0.30404097 0.05743524
0.08972007 -0.21667552 0.07451599
-0.0091973245 -0.39749625 0.073926345
0.09385832 -0.16724905 0.09188485
0.09007098 -0.2109755 0.06936707
-0.061520465 -0.4845363 0.06744633
0.031499863 -0.28591877 0.06383459
0.023403302 -0.3054459 0.06212443
-0.07290126 -0.4860706 0.07778616
0.086980484 -0.1778413 0.08237955
0.057099007 -0.2287946 0.061938316
0.10654444 -0.1659863 0.052448317
0.07790448 -0.19823496 0.06787646
-0.07289345 -0.50677234 0.089194
0.09717276 -0.1825409 0.062245853
-0.08002219 -0.5126193 0.08624397
0.038703337 -0.2837608 0.06165767
0.04699474 -0.281072 0.06000127
0.013164453 -0.3521606 0.059343718
-0.05195886 -0.44028914 0.065518126
0.07739183 -0.25075665 0.08423063
0.018328398 -0.31974575 0.08947297
0.021793477 -0.35326576 0.07572152
-0.04841835 -0.43475467 0.08988033
0.09145175 -0.19427168 0.0611039
0.039235085 -0.28679657 0.08932759
-0.040262967 -0.41742423 0.09126301
0.004458338 -0.35848755 0.063936815
0.027418919 -0.3010502 0.09195121
0.086732686 -0.21778372 0.06707887
-0.021439537 -0.4188557 0.058488347
-0.05093073 -0.42654064 0.06395818
0.10167279 -0.16841692 0.0923561
-0.021270901 -0.430102 0.060069393
-0.08691481 -0.5232827 0.07757446
-0.011164203 -0.3846824 0.08649937
0.08269513 -0.15597352 0.06654057
0.024667874 -0.2953963 0.07247379
-0.0130636245 -0.43117276 0.08414203
-0.005504139 -0.34318715 0.07098426
0.005670935 -0.32205123 0.06775579
0.053199228 -0.22435436 0.06344006
0.05256863 -0.24974467 0.08212499
-0.021235436 -0.43143886 0.08738396
0.050032686 -0.2346395 0.06506133
0.011499144 -0.36093563 0.06752564
-0.07146834 -0.48498428 0.07601365
0.029672623 -0.2775525 0.07498336
-0.08941949 -0.50829256 0.06850222
-0.005693257 -0.36595607 0.06785965
0.09802957 -0.17979075 0.086245865
0.028483674 -0.3031175 0.091183335
-0.01950612 -0.39060917 0.08162774
-0.009948738 -0.40260622 0.07506979
-0.045530498 -0.4829927 0.080292284
0.10122783 -0.17918499 0.061970983
0.004058346 -0.3401885 0.0914989
0.08593632 -0.22470915 0.071922064
-0.044134863 -0.4510675 0.06424244
0.092044264 -0.2027381 0.06305501
0.088350914 -0.15936077 0.060098834
-0.05758162 -0.46648532 0.065935954
0.03390365 -0.27269045 0.078515485
0.109291516 -0.17617294 0.06108675
0.044085726 -0.26307344 0.08343355
0.011558272 -0.35886648 0.06139527
-0.013176233 -0.40095913 0.08192603
-0.009628683 -0.36642644 0.080899775
-0.05706898 -0.4927414 0.079674944
-0.050207973 -0.42687297 0.07696268
0.04200539 -0.3146928 0.07243815
-0.03136091 -0.44173527 0.08755639
-0.022823885 -0.42882675 0.055179235
-0.024416097 -0.40896097 0.08733238
0.0428207 -0.26471135 0.08706288
0.02998899 -0.34061804 0.08001371
-0.026339814 -0.44859862 0.08443788
-0.0065612495 -0.34608805 0.07240781
-0.06891299 -0.50936323 0.087541424
-0.016932927 -0.37794378 0.0635103
0.0016817003 -0.37019414 0.08176723
-0.044757932 -0.4776479 0.07041247
0.08676708 -0.21468388 0.063827485
-0.042169943 -0.4282889 0.09387163
0.07269126 -0.24524224 0.05663726
-0.061081573 -0.47405437 0.09039429
0.10262592 -0.18937767 0.084299326
0.10192828 -0.17108493 0.08935504
0.088022225 -0.18395336 0.063107505
-0.069431886 -0.47030547 0.0787559
-0.078124486 -0.5163338 0.08386499
-0.067016006 -0.46241063 0.06635812
0.042048052 -0.29670346 0.067095116
0.06140059 -0.25378287 0.08315918
0.022765405 -0.33075088 0.08568023
0.022146389 -0.31611758 0.08946417
0.033622183 -0.332658 0.08261735
-0.0012153536 -0.34418553 0.0842561
0.044265553 -0.29523823 0.08229098
-0.075529344 -0.49031085 0.08750272
-0.05615142 -0.46233752 0.08444448
0.05622144 -0.2862594 0.07372856
0.0077262074 -0.38368133 0.07640971
-0.03076005 -0.4386188 0.05651444
-0.06612186 -0.5157982 0.06877786
-0.07355872 -0.48618087 0.06824243
0.0057184473 -0.37351942 0.07589075
0.12099886 -0.16804412 0.06639956
-0.022284456 -0.37683 0.07285467
0.0049005747 -0.32644248 0.0747737
-0.04843095 -0.47162628 0.061721366
-0.051022552 -0.42963147 0.077233836
0.090842366 -0.21993613 0.081284784
0.041576833 -0.29590407 0.081476
-0.022334114 -0.39058596 0.07449007
-0.054124802 -0.44640103 0.07512224
0.0075865015 -0.32184923 0.0666027
0.009482674 -0.3130973 0.068606734
-0.0695991 -0.497363 0.08927925
0.02882091 -0.29268682 0.06898336
0.031439736 -0.27504236 0.06531344
-0.063137844 -0.51423854 0.072585136
0.08474447 -0.15611187 0.07466394
0.104855806 -0.15957908 0.052536875
0.002956666 -0.35042945 0.08957831
0.080942884 -0.21414804 0.0629898
-0.0262831 -0.4488282 0.078491904
0.074704126 -0.2121068 0.08761439
-0.03550218 -0.41194445 0.06349157
0.023366734 -0.31795815 0.06145091
0.06173538 -0.23299386 0.06032441
-0.0454944 -0.42292744 0.0867156
0.0035758615 -0.35068902 0.06232723
0.08800684 -0.2264787 0.07978703
0.08508527 -0.21906203 0.06361316
0.033589333 -0.26621687 0.06655151
-0.017573893 -0.36668587 0.06923221
0.08019249 -0.23800208 0.060045518
-0.051020466 -0.4332002 0.08069942
0.02107586 -0.34352133 0.05712905
-0.02452074 -0.44660556 0.078596786
0.041727006 -0.31346264 0.06961114
-0.044733644 -0.4607141 0.08107482
-0.08486707 -0.5243565 0.06654047
0.051783785 -0.28834558 0.06401917
-0.04125665 -0.42519298 0.09451009
0.020201668 -0.33344883 0.060921755
-0.08871276 -0.5036457 0.07448197
-0.05594778 -0.44457135 0.06862701
0.08199206 -0.20435432 0.06532331
-0.017574407 -0.39315215 0.0679922
0.037684917 -0.31768012 0.06652642
0.0777489 -0.23865445 0.054453496
-0.066882044 -0.47184378 0.07737473
-0.027795978 -0.4093748 0.06325559
0.00891611 -0.32459125 0.07991892
0.061073437 -0.21670485 0.073807254
-0.08386496 -0.5167828 0.084711075
0.06264766 -0.27543557 0.08015114
