-0.22245438 -0.10402543 -0.29230955
-0.21688536 -0.045562953 -0.22802544
-0.1813644 0.02853376 -0.10598931
-0.19499406 -0.0005159881 -0.14702597
-0.24958348 -0.1999869 -0.35055336
-0.1700696 -0.034348726 -0.19797873
-0.21437314 -0.09965834 -0.28432637
-0.21016762 -0.13448344 -0.30403572
-0.20803636 -0.15721013 -0.296434
-0.23393294 -0.20981368 -0.34685403
-0.2526973 -0.19048509 -0.3464346
-0.18878281 -0.042532034 -0.20299256
-0.2159056 -0.091240555 -0.25903422
-0.1977488 -0.11721064 -0.28497338
-0.18736134 -0.1110453 -0.27435616
-0.22829822 -0.26779902 -0.3808116
-0.2356889 -0.15885632 -0.33605543
-0.18651898 -0.029386127 -0.18539362
-0.18095654 -0.01637709 -0.19187486
-0.21810333 -0.13093823 -0.30683652
-0.19643106 -0.048128612 -0.23786508
-0.26572847 -0.24395433 -0.38917413
-0.18638195 -0.024740623 -0.2073198
-0.22050035 -0.23543909 -0.35473847
-0.18007156 -0.06353255 -0.21595103
-0.2166918 -0.060762413 -0.2568016
-0.25783288 -0.21117572 -0.36303282
-0.17145866 -0.031338666 -0.18891472
-0.18672822 0.008111807 -0.15811525
-0.25077134 -0.23679902 -0.37499508
-0.20367901 -0.027790863 -0.2252739
-0.2161341 0.01736762 -0.13542101
-0.18772519 0.021515438 -0.12584364
-0.24774697 -0.2329351 -0.3705725
-0.20952015 0.036054794 -0.11969873
-0.2149581 -0.07507713 -0.24803045
-0.22770792 -0.1661045 -0.3356077
-0.23985818 -0.15665571 -0.33425963
-0.22353016 -0.12772389 -0.28738567
-0.20337608 0.014054251 -0.12135616
-0.25854948 -0.2673276 -0.40084964
-0.18966308 0.012284121 -0.09558636
-0.23423238 -0.14925604 -0.30808955
-0.23882546 -0.25300637 -0.39862987
-0.19654138 -0.1330835 -0.2944111
-0.2509663 -0.22308613 -0.3871557
-0.16983119 -0.031289455 -0.20007145
-0.18641303 0.012556051 -0.14846472
-0.244478 -0.23229128 -0.3889227
-0.20915952 -0.06900291 -0.26126724
-0.23443961 -0.12922218 -0.3083111
-0.21526356 0.022348084 -0.116863884
-0.1688689 -0.009775109 -0.16328634
-0.23953699 -0.2612968 -0.38356102
-0.256166 -0.26851767 -0.4064475
-0.17024416 -0.045132972 -0.21522743
-0.20807251 -0.07329333 -0.26333162
-0.24236536 -0.20286106 -0.36863816
-0.2138438 -0.041092597 -0.2349461
-0.18807459 -0.05246107 -0.23532724
-0.21177618 -0.069684476 -0.24237998
-0.23368528 -0.25777385 -0.3984052
-0.20847705 -0.19720143 -0.34329933
-0.21458367 -0.13283603 -0.28494644
-0.2660516 -0.24610952 -0.39215338
-0.24417351 -0.18331277 -0.3363635
-0.23418576 -0.2660802 -0.38321176
-0.20551097 0.017383832 -0.11408513
-0.2190243 -0.2085141 -0.33647296
-0.21727102 -0.08605248 -0.27742833
-0.24108079 -0.27266267 -0.39186144
-0.19914375 -0.16960523 -0.31852096
-0.22331607 -0.0877611 -0.27829084
-0.22249451 -0.07058875 -0.25399256
-0.1737489 -0.01962861 -0.16341159
-0.20697054 -0.11481423 -0.28933564
-0.20418814 -0.004762902 -0.16725937
-0.21094246 -0.091054216 -0.25573722
-0.24813382 -0.18295063 -0.349472
-0.19543347 -0.13953434 -0.29785115
-0.22342095 -0.15363188 -0.3039825
-0.20294833 -0.000591645 -0.1578524
-0.22796586 -0.28259838 -0.40649006
-0.1878883 -0.034024857 -0.19254282
-0.2028672 0.010040773 -0.17513105
-0.23725279 -0.17771986 -0.34919098
-0.25099033 -0.18661629 -0.34625572
-0.17828047 -0.06525473 -0.22060993
-0.18753509 -0.016799489 -0.1990819
-0.22099036 -0.12716193 -0.30625546
-0.23932812 -0.26496327 -0.40664315
-0.21312603 -0.11004059 -0.26934886
-0.20801704 -0.12973666 -0.27874777
-0.19800855 0.01627484 -0.0991658
-0.20203796 -0.1810986 -0.32881752
-0.25025102 -0.2583361 -0.409374
-0.1991397 -0.07431085 -0.23723057
-0.24491352 -0.17498574 -0.3471005
-0.17409311 -0.002056349 -0.16209374
-0.24059187 -0.16235547 -0.3408798
-0.17809702 -0.047956377 -0.22421111
-0.21229737 -0.076531045 -0.2472621
-0.2135526 0.014637054 -0.13836625
-0.2604516 -0.24773629 -0.4090859
-0.21553722 -0.20067722 -0.32919863
-0.17188807 0.0085667465 -0.1251204
-0.21259584 -0.02415994 -0.2123593
-0.21703908 -0.21465154 -0.36000732
-0.21108322 -0.07065662 -0.26356325
-0.21913016 -0.13458842 -0.28898463
-0.21916746 -0.089025564 -0.2596984
-0.18920538 -0.06191649 -0.24350946
-0.18949077 -0.060393117 -0.22020215
-0.20306239 -0.10263495 -0.2789988
-0.2439092 -0.16813493 -0.3395272
-0.16842796 -0.030722825 -0.19744964
-0.18844287 -0.09884974 -0.26720315
-0.19141902 -0.098632276 -0.268969
-0.24334072 -0.18224129 -0.3559978
-0.1959404 -0.082396805 -0.26142013
-0.25202897 -0.26907778 -0.39656475
-0.20802413 -0.05575712 -0.22979286
-0.210919 -0.027569626 -0.22295056
-0.21107116 -0.022202555 -0.2140747
-0.1801039 -0.014219963 -0.15511435
-0.21621983 -0.06821783 -0.2652833
-0.2117116 -0.17434236 -0.30980834
-0.20896925 -0.03430955 -0.2357592
-0.24993637 -0.20827101 -0.3561082
-0.21630694 -0.1133053 -0.2734857
-0.17211726 -0.055437997 -0.22621962
-0.17986798 -0.08490825 -0.24639054
-0.17736313 -0.017801136 -0.1902185
-0.18529484 -0.044602036 -0.22673777
-0.20326895 -0.01594506 -0.21229018
-0.2246769 -0.14431402 -0.29879233
-0.20069535 -0.05941192 -0.22745082
-0.22070871 -0.13020405 -0.3080323
-0.2350643 -0.2750609 -0.3895519
-0.20499243 -0.042808536 -0.2163221
-0.20775443 -0.033278 -0.20929427
-0.24695033 -0.22915629 -0.38848928
-0.19308658 -0.028467078 -0.19070598
-0.25002173 -0.21280968 -0.37993973
-0.21956593 -0.06376379 -0.25249058
-0.18338935 -0.097680226 -0.2553411
-0.17143439 -0.021620633 -0.18951115
-0.17215517 -0.05434114 -0.22272864
-0.21527626 -0.19582854 -0.32591236
-0.20991336 -0.085168354 -0.27214903
-0.1757239 0.012672487 -0.10667328
-0.21761236 -0.2015051 -0.3310597
-0.19545864 -0.08674734 -0.24305293
-0.22272235 -0.13697465 -0.31367642
-0.22347751 -0.13270958 -0.31141716
-0.2071649 -0.04300803 -0.24148175
-0.21430092 -0.079047784 -0.27102128
-0.21463008 -0.06651885 -0.24213481
-0.17100354 -0.011069475 -0.17367321
-0.19504115 -0.13563263 -0.27821496
-0.1926213 -0.06040413 -0.22245452
-0.19823587 -0.15113167 -0.30710626
-0.17336686 -0.039247014 -0.21206827
-0.19197446 -0.13002706 -0.27905414
-0.2571919 -0.20881237 -0.36155397
-0.17716813 -0.066683725 -0.2388347
-0.20685424 0.020146431 -0.10481563
-0.21135758 -0.04324087 -0.24469148
-0.2186428 -0.050505355 -0.23463547
-0.19768123 -0.05481489 -0.22162998
-0.24976152 -0.25354075 -0.38511783
-0.18237138 0.0011969674 -0.122851744
-0.19360158 0.0058857333 -0.17138559
-0.23101541 -0.2608267 -0.37780225
-0.2074338 0.02769408 -0.14290068
-0.17956075 -0.048023373 -0.20105721
-0.21276887 -0.08073599 -0.25026876
-0.22729793 -0.1781038 -0.34306413
-0.22515419 -0.2629678 -0.39628392
-0.18161942 -0.08759724 -0.24510932
-0.18495011 -0.0070542693 -0.18305087
-0.22794083 -0.2383111 -0.36134964
-0.23688295 -0.27814594 -0.41342646
-0.210596 -0.14698343 -0.291494
-0.21488407 -0.0855853 -0.2756002
-0.2028651 -0.16420448 -0.31847984
-0.20563059 -0.028358573 -0.20182781
-0.2631788 -0.259189 -0.4181993
-0.22021411 0.027647654 -0.10477161
-0.22004807 -0.2545487 -0.3859331
-0.20859759 -0.06619727 -0.2590699
-0.2259494 -0.11082481 -0.27806395
-0.20868242 -0.12176487 -0.2949028
-0.22605006 -0.25852346 -0.39399904
-0.2502141 -0.21731985 -0.38296434
-0.22709152 -0.18233778 -0.32479855
-0.22852138 -0.24153836 -0.36379746
-0.2052739 -0.053201877 -0.22578672
-0.1865415 -0.0060951337 -0.14711049
-0.23403382 -0.1519596 -0.30970174
-0.24192637 -0.2756277 -0.40645343
-0.20708925 0.009991712 -0.17617333
-0.17509186 -0.012108505 -0.18008664
-0.18689321 -0.0825365 -0.23472509
-0.22726002 -0.10612698 -0.29467094
-0.2677163 -0.2558292 -0.40214646
-0.21174765 -0.20029342 -0.32704297
-0.22370893 -0.25952592 -0.38224843
-0.17880033 0.016920073 -0.123494014
-0.19762048 -0.035268724 -0.20257667
-0.2441253 -0.24422222 -0.37551478
-0.23612888 -0.12964597 -0.30367994
-0.19107664 0.005937324 -0.16838244
-0.24407522 -0.22451335 -0.38366103
-0.21235856 -0.19158559 -0.34217235
-0.2509037 -0.19684604 -0.3625359
-0.21978585 -0.09592217 -0.28538758
-0.20860873 -0.04044856 -0.24046323
-0.24219391 -0.16938968 -0.34686685
-0.1971341 -0.16086608 -0.31266296
-0.21066678 -0.16121456 -0.30069363
-0.20919365 -0.15326986 -0.29463995
-0.212358 -0.08499236 -0.25274402
-0.21107024 -0.118565574 -0.29437405
-0.19246422 -0.12867846 -0.27540874
-0.17410716 -0.05797594 -0.22229895
-0.2131291 -0.056255214 -0.23384812
-0.37348095 -0.13723293 0.21486099
-0.31301978 -0.018451393 0.11131647
-0.25322354 0.016622383 0.066706754
-0.31005895 -0.015647372 0.11781826
-0.26173368 0.00015513785 0.092178956
-0.2994031 -0.024425087 0.12432583
-0.31149286 -0.08384287 0.16780715
-0.3614292 -0.11731801 0.23644195
-0.36648065 -0.085820146 0.18822509
-0.38728222 -0.17474477 0.26308775
-0.2335793 0.043900374 -0.0071058534
-0.3856879 -0.11123029 0.1938775
-0.39537656 -0.16137323 0.25989485
-0.3223551 -0.07525727 0.18801802
-0.22102594 0.028928548 -0.10048668
-0.29473653 -0.06255228 0.14860845
-0.42695186 -0.16849595 0.27039677
-0.38458222 -0.1398289 0.2391266
-0.3681302 -0.08409614 0.18131186
-0.20416342 0.023313724 -0.0008873306
-0.22752821 0.04068181 -0.004418008
-0.31211886 -0.04410179 0.12325279
-0.33774075 -0.067942604 0.18899296
-0.23958139 0.036909252 0.019300126
-0.2992604 -0.046536893 0.160581
-0.32112354 -0.059408695 0.13816936
-0.19868112 0.035124227 -0.036252942
-0.27710977 0.011166946 0.057006672
-0.21998766 0.020004034 0.041862287
-0.20588033 0.023969904 -0.06051396
-0.23204415 0.04477067 -0.012893934
-0.31611156 -0.08801087 0.17576016
-0.29218167 -0.011894435 0.090086445
-0.18844712 0.013187779 -0.08725588
-0.25387344 0.02065534 0.060443897
-0.21786743 0.040194627 -0.017970596
-0.29351017 0.007937992 0.09146789
-0.32168248 -0.064130835 0.18348455
-0.19597983 0.033228334 -0.09553013
-0.34394908 -0.10474916 0.20954436
-0.41105607 -0.18672387 0.2915836
-0.2200276 0.034403425 -0.09742054
-0.22162332 0.0309015 -0.08692765
-0.35833734 -0.08922872 0.19023165
-0.38904703 -0.11280711 0.20193781
-0.324335 -0.033611394 0.12305586
-0.26218566 -0.02615558 0.1035472
-0.40971926 -0.14248762 0.24754837
-0.33114818 -0.085162625 0.18304747
-0.20347874 0.03790038 -0.041672032
-0.21864556 0.04217557 -0.025940515
-0.36868837 -0.10719906 0.20773001
-0.42666563 -0.16213012 0.2851776
-0.30752653 -0.010790942 0.13335612
-0.4304727 -0.17128995 0.273365
-0.2999772 -0.03588146 0.13469924
-0.36373693 -0.14175352 0.21766055
-0.36117673 -0.09520897 0.21653831
-0.3078933 -0.05739451 0.17064652
-0.38535693 -0.11380932 0.19535643
-0.41582748 -0.1614848 0.24213031
-0.40951115 -0.14084832 0.2638256
-0.43124866 -0.16638188 0.28959367
-0.28422982 -0.049037367 0.13682862
-0.36009043 -0.09667197 0.19715035
-0.30139285 -0.02531128 0.10484776
-0.40103078 -0.12524045 0.2200395
-0.2613841 0.036285643 0.03514187
-0.29214507 0.0017315522 0.104745165
-0.20960388 0.014807553 0.002852425
-0.44021806 -0.16998622 0.273458
-0.27547055 -0.010523386 0.08466664
-0.31930757 -0.050678007 0.17108524
-0.21798113 0.03003615 -0.06552734
-0.25662243 0.02492357 0.021291748
-0.38954452 -0.1452787 0.24466953
-0.28967842 0.0024651513 0.07302642
-0.37102398 -0.092524365 0.20446032
-0.34492308 -0.09555905 0.19418176
-0.32988566 -0.043205112 0.1254391
-0.3039519 -0.050199058 0.12767243
-0.28108564 -0.005729014 0.12578763
-0.38279447 -0.1022058 0.19893162
-0.4022458 -0.12793475 0.21963118
-0.3331393 -0.04259187 0.1638645
-0.28770426 -0.03655257 0.13370955
-0.29174635 0.007108221 0.11190957
-0.35299262 -0.07877545 0.15969363
-0.31167275 -0.05327251 0.17242685
-0.42267045 -0.15664142 0.23872142
-0.31199867 -0.08623849 0.1656435
-0.27252138 -0.01137046 0.08485295
-0.23039767 0.04670836 -0.022955094
-0.31529248 -0.02223031 0.11252579
-0.20724353 0.024924796 0.011287373
-0.35966772 -0.14013165 0.23070669
-0.30083436 -0.018111834 0.09815258
-0.3796875 -0.113126874 0.19400924
-0.28413042 0.010301303 0.06576875
-0.3812116 -0.16037546 0.25715935
-0.23562993 0.021514596 0.011522751
-0.39951658 -0.18927471 0.27869383
-0.31676933 -0.029029958 0.13071968
-0.23260859 0.017575912 0.054678295
-0.29139778 0.0020112991 0.12057778
-0.23925266 0.026681978 0.00073063746
-0.22231314 0.014747191 0.042590532
-0.2276364 0.028771464 -0.022543058
-0.25462568 0.013045352 0.07255993
-0.35510522 -0.1205514 0.21978012
-0.26083252 -0.020669175 0.09275751
-0.24934953 0.028671177 0.0062667243
-0.21685097 0.017678525 0.030058596
-0.31131744 -0.0247446 0.14674124
-0.29347026 -0.009738913 0.11035374
-0.213385 0.014993388 0.0054622777
-0.3121803 -0.022402052 0.12977141
-0.26369837 0.028118473 0.02961424
-0.1911463 0.032720685 -0.07714234
-0.27063727 -0.0060427487 0.10658848
-0.25563028 0.023433797 0.023898888
-0.3793541 -0.14321505 0.22099553
-0.24679352 0.0055430625 0.08009476
-0.26011318 0.024086937 0.025683723
-0.25379923 0.017909424 0.0334765
-0.23427263 0.0066409092 0.067387596
-0.31885275 -0.0342673 0.15627722
-0.3751321 -0.120356314 0.24094974
-0.28723878 -0.020403102 0.098015256
-0.3326689 -0.07222546 0.19218424
-0.22123383 0.04881321 -0.062580094
-0.27470306 -0.021165594 0.09623563
-0.2748866 0.0038289037 0.09149855
-0.42161602 -0.18590656 0.302174
-0.27441248 -0.0067726 0.10732777
-0.41510895 -0.1891556 0.27895778
-0.3720754 -0.11097328 0.1910887
-0.42856428 -0.17993334 0.26035237
-0.2891273 0.006943714 0.11680973
-0.20199825 0.037664536 -0.0853366
-0.20749706 0.03904431 -0.09885724
-0.3526241 -0.0985425 0.19786334
-0.31718078 -0.06460272 0.18332462
-0.31292567 -0.044050835 0.14372379
-0.35823384 -0.10759358 0.22728746
-0.22766611 0.045698337 -0.023442011
-0.31640124 -0.05236552 0.13123082
-0.37129098 -0.11393346 0.23467864
-0.36123967 -0.09166887 0.19280247
-0.35909945 -0.092637606 0.21395814
-0.38498485 -0.10536902 0.20084645
-0.31020018 -0.022708502 0.14476596
-0.18270099 0.025094409 -0.06536691
-0.22654326 0.01882652 0.04835731
-0.23107721 0.046136223 -0.04442872
-0.30118012 -0.04779557 0.164628
-0.23564786 0.016180217 0.05870834
-0.28597257 -0.032310907 0.14119752
-0.22468844 0.032864835 -0.085220575
-0.20771034 0.019050658 0.0035579093
-0.25324062 0.025869433 0.016303387
-0.43884462 -0.17295776 0.29114813
-0.379416 -0.1137763 0.21503511
-0.43768683 -0.17532873 0.28380904
-0.20012513 0.019298835 -0.037706587
-0.31859615 -0.06639917 0.16455033
-0.29734966 -0.051149137 0.14808336
-0.2549669 0.028978024 0.047084007
-0.27462307 -0.0097850375 0.10957893
-0.28653488 -0.05176007 0.1268197
-0.26221782 0.012391264 0.11311509
-0.27036482 -0.029949505 0.12324463
-0.36149588 -0.07575777 0.1735678
-0.22073114 0.038932607 -0.008559179
-0.36835513 -0.089316726 0.17384697
-0.26363868 -0.0030428506 0.11700201
-0.421243 -0.1860928 0.27778852
-0.24821205 0.019889098 0.025898632
-0.29466757 -0.0069878306 0.08543988
-0.24951479 0.04298491 0.013530612
-0.25884494 0.011558535 0.076251626
-0.34804392 -0.081715815 0.1616945
-0.40691793 -0.1741809 0.25238195
-0.27155012 0.013001071 0.11256194
-0.33383858 -0.10805224 0.19995621
-0.39593512 -0.14276488 0.22273734
-0.37875867 -0.15115385 0.24855119
-0.42330632 -0.1609778 0.28370658
-0.31722102 -0.059682615 0.17890789
-0.18683948 0.012783974 -0.082950376
-0.3523274 -0.13398372 0.21732208
-0.28086415 -0.019941587 0.13847493
-0.23546746 0.017835349 0.055915445
-0.3368619 -0.061031092 0.16209543
-0.19832972 0.01942938 -0.077986084
-0.23510672 0.014376367 0.061384324
-0.34399483 -0.058025792 0.1464661
-0.27385634 -0.03945429 0.119313344
-0.32187366 -0.069457695 0.16772504
-0.24474597 0.023657145 0.050764725
-0.3120782 -0.044502072 0.1645975
-0.31365073 -0.088767536 0.16686349
-0.27555427 0.019692132 0.07121424
-0.3965226 -0.18857855 0.27039984
-0.4291977 -0.1821209 0.30157667
-0.35980994 -0.091939434 0.17240193
-0.21599616 0.027248248 -0.04300998
-0.40425414 -0.17323296 0.29137748
-0.43002772 -0.17152913 0.2940615
-0.42350307 -0.16779178 0.24878995
-0.4165765 -0.14360401 0.24002455
-0.3620999 -0.0922226 0.21397355
-0.22377741 0.008856627 0.031004954
-0.2656549 -0.02875012 0.11035995
-0.32475024 -0.07849122 0.15578166
-0.3815003 -0.100732684 0.20357984
-0.26812407 -0.010028694 0.105604015
-0.28532994 0.009460606 0.06821269
-0.25991058 0.019824851 0.064795256
-0.37972116 -0.11095096 0.21253513
-0.3955149 -0.12051497 0.21014695
-0.3903287 -0.16155371 0.26601025
-0.1984873 0.018093225 -0.033756442
-0.3704139 -0.11411872 0.1936995
-0.3496777 -0.09453717 0.21444282
-0.28334463 0.014570629 0.06998707
-0.3309718 -0.0601311 0.18109412
-0.41755205 -0.1515073 0.2579824
-0.4144479 -0.1842083 0.282898
-0.38934422 -0.15092179 0.22921191
-0.32267135 -0.084067576 0.16052148
-0.24545588 0.0033480376 0.08266263
-0.38216397 -0.103369385 0.19513457
-0.29820636 0.00085106865 0.09509587
-0.40970778 -0.13575482 0.25804868
-0.28254884 -0.050622948 0.12907894
-0.41548523 -0.17321655 0.27315152
-0.3447896 -0.12945497 0.20466399
-0.38495567 -0.13605867 0.21529181
-0.35491595 -0.073879436 0.18315305
-0.30759567 -0.010755107 0.106360644
-0.41535005 -0.14677316 0.2584896
-0.35763562 -0.112209216 0.19032958
-0.36259562 -0.07822506 0.20042175
-0.18708283 0.027698861 -0.047557868
-0.32755193 -0.03402192 0.13660699
-0.3042888 -0.054118 0.1644769
-0.27397963 -0.03615305 0.11097841
-0.22791119 0.016413495 0.017035503
-0.28937626 0.010606088 0.082686946
-0.3410385 -0.05883663 0.1632
-0.25401074 0.0092551 0.07763967
-0.32197726 -0.048071187 0.1485133
-0.28430787 0.014834173 0.07341847
-0.2854171 -0.019178998 0.13837999
-0.35118788 -0.090953454 0.21141812
-0.23743011 0.00088151265 0.068270594
-0.3853775 -0.10549548 0.20836529
-0.27516153 -0.013412686 0.088063255
-0.32249543 -0.029599225 0.13197476
-0.27228105 -0.016910166 0.114754155
-0.31605142 -0.07289429 0.17005906
-0.3395132 -0.061296396 0.16267799
-0.2914022 -0.033389237 0.11087509
-0.3479615 -0.095264144 0.17385459
-0.39182886 -0.12829813 0.25025275
-0.32917237 -0.06714721 0.14616331
-0.35766542 -0.075232446 0.19812891
-0.431907 -0.16383718 0.26685143
-0.39125246 -0.16546689 0.24252515
-0.29996216 -0.0034699664 0.121105015
-0.2640585 0.014026571 0.0747779
-0.29273266 -0.024337789 0.1439652
-0.24552166 -0.010657741 0.0755003
-0.21542023 0.025464889 0.025565773
-0.21183038 0.026193922 -0.051693846
-0.3988325 -0.14353412 0.26485428
-0.33151534 -0.06585982 0.1863135
-0.40503427 -0.13429174 0.24569088
-0.22146396 0.012484617 0.020726059
-0.29524705 -0.002849659 0.10729806
-0.35990545 -0.14093482 0.21642862
-0.38168222 -0.10302688 0.22142908
-0.22709863 0.017626967 0.051029745
-0.19846901 0.037240792 -0.060186524
-0.42486048 -0.17364168 0.29528975
-0.22234568 0.016851403 0.04598541
-0.3613096 -0.123080164 0.22104874
-0.2803069 0.006107025 0.116982244
-0.2641557 -0.027812907 0.10712798
-0.2610539 0.029886916 0.048933793
-0.22318506 0.0247436 0.033800494
-0.38005984 -0.112937726 0.23492123
-0.31873706 -0.043453887 0.16451877
-0.41164905 -0.13974619 0.2306184
-0.3704188 -0.10189666 0.22374725
-0.32259423 -0.03488472 0.1428757
-0.35305157 -0.078447 0.1798531
-0.24243832 0.017322866 0.060211346
-0.39389294 -0.1623027 0.276009
-0.41387826 -0.14406596 0.25811327
-0.3743575 -0.11542785 0.19538571
-0.3234526 -0.043638483 0.124304146
-0.3078369 -0.0138958935 0.11595489
-0.36816138 -0.1464024 0.22240958
-0.3388243 -0.048801817 0.14469564
-0.24039364 0.02977122 -0.0068615787
-0.3294235 -0.10251535 0.17796776
-0.41143894 -0.18195458 0.2804821
-0.2890106 -0.014365723 0.09203215
-0.32325917 -0.04234633 0.1641095
-0.23642412 0.026606789 0.03971344
-0.30840498 -0.018221056 0.09931164
-0.34414172 -0.07452887 0.19574279
-0.2646274 0.011788477 0.05029506
-0.40636402 -0.14480022 0.22591665
-0.2878966 -0.0010002162 0.076700106
-0.39052474 -0.14689025 0.26679352
-0.3104248 -0.03156912 0.13217846
-0.30413538 -0.023785204 0.124364756
-0.37629327 -0.15830277 0.23415264
-0.30498245 -0.008765386 0.12855253
-0.41404027 -0.17550953 0.27502546
-0.2908155 0.0042133406 0.0771936
-0.40891007 -0.16904679 0.2890914
-0.26512933 0.021739222 0.06425889
-0.30424505 -0.019882899 0.12087106
-0.32990924 -0.04821673 0.1496734
-0.3414119 -0.07487993 0.15469421
-0.36181697 -0.10248512 0.22316103
-0.27343947 -0.020459384 0.12046373
-0.33773 -0.11266889 0.20492774
-0.42198166 -0.15252215 0.2702773
-0.33062616 -0.07039159 0.19027123
-0.2133305 0.034043226 -0.0016159602
-0.34978902 -0.12980601 0.21590436
-0.40279168 -0.12950471 0.23220873
-0.21520007 0.019898027 0.028357785
-0.19760053 0.019803714 -0.06852847
-0.20690762 0.021451438 -0.031836912
-0.2655463 0.006372518 0.05933389
-0.2837268 -0.03285767 0.13330348
-0.30406228 -0.07495606 0.15842575
-0.30343542 -0.032203212 0.13184167
-0.23614988 0.032560106 0.026534837
-0.21490146 0.046014387 -0.05726548
-0.259029 0.032717504 0.022176862
-0.33628154 -0.07798545 0.19782959
-0.37943852 -0.16336706 0.25630975
-0.33922103 -0.08624853 0.18507148
-0.18615425 0.011461839 -0.08964607
-0.370814 -0.09386189 0.17555353
-0.40575182 -0.15976475 0.259796
-0.27105257 -0.0035541542 0.12366732
-0.22158642 0.046568964 -0.04363881
-0.40808558 -0.13462308 0.23749655
-0.28574854 0.011747129 0.07310279
-0.2944528 -0.047168054 0.14452554
-0.42790005 -0.18276887 0.27123606
-0.39586848 -0.18529072 0.2734948
-0.39723325 -0.18175544 0.2579322
-0.28323773 -0.019586883 0.096333064
-0.3888349 -0.15572162 0.25396532
-0.23223609 0.010624589 0.033705506
-0.37061003 -0.10851948 0.20916684
-0.41302946 -0.17219025 0.27191052
-0.31547803 -0.08902384 0.17218946
-0.4054808 -0.13681556 0.24314079
-0.2938357 -0.03545239 0.11311116
-0.41327912 -0.19006926 0.27295062
-0.37338609 -0.13536534 0.25389227
-0.3757735 -0.09658787 0.21298683
-0.34930092 -0.0657614 0.15099055
-0.27253613 -0.013804294 0.12804715
-0.41096124 -0.19122659 0.28154594
-0.34099704 -0.051572945 0.14716879
-0.21363987 0.025817733 0.023240674
-0.18793301 0.023720877 -0.05111844
-0.20780025 0.023594039 -0.08637086
-0.38681334 -0.15579541 0.2640039
-0.21351013 0.012935914 0.0115043
-0.40476674 -0.15211886 0.25279444
-0.28100637 0.019854404 0.07092735
-0.42577642 -0.15855226 0.24546568
-0.38761503 -0.12979364 0.21000794
-0.2937334 -0.0550584 0.13071476
-0.36989626 -0.13453999 0.21197723
-0.29854274 -0.0164499 0.13762961
-0.32629204 -0.099124074 0.19027598
-0.28486574 0.01680308 0.10551636
-0.1799025 0.02780381 -0.087173186
-0.24146724 0.02239611 0.051085573
-0.338188 -0.09632538 0.17354222
-0.42481428 -0.1555606 0.27440012
-0.34214577 -0.11517276 0.21145263
-0.3181499 -0.027335165 0.14076093
-0.26740927 0.014039323 0.07603632
-0.31272787 -0.07240185 0.1691849
-0.36239323 -0.12722753 0.22491768
-0.41206884 -0.1651975 0.2860419
-0.37602115 -0.14013986 0.25467926
-0.41876832 -0.1487036 0.23891352
-0.21807447 0.025460228 -0.026871122
-0.31106564 -0.028461242 0.12946802
-0.393542 -0.11769691 0.24094716
-0.41004258 -0.16677597 0.26665547
-0.27781254 -0.022845505 0.13043547
-0.37512243 -0.09122163 0.1920756
-0.23286036 0.004584251 0.045638252
-0.31111366 -0.02726664 0.107999034
-0.24536105 -0.0012598112 0.08908667
-0.27831453 -0.017861329 0.09350509
-0.26032555 -0.0071644317 0.07619629
-0.37559867 -0.12533346 0.20444581
-0.19493598 0.018374689 -0.0708209
-0.34714252 -0.057640433 0.16038175
-0.19358528 0.022561744 -0.035217464
-0.18756185 0.021059768 -0.0564461
-0.3700753 -0.11907811 0.19811119
-0.3278479 -0.047501434 0.16933852
-0.21861647 0.030750327 0.014770936
-0.41146314 -0.15493539 0.25619555
-0.3842372 -0.1759165 0.25171062
-0.25029707 0.01589112 0.035108197
-0.23597252 0.0005807122 0.054421585
-0.4019673 -0.16909222 0.24716996
-0.23099796 0.024547752 -0.002337955
-0.3888125 -0.15297881 0.23099136
-0.30602098 -0.016664006 0.1182083
-0.33161777 -0.040575434 0.16225131
-0.3770059 -0.16151828 0.23713368
-0.3642758 -0.15014768 0.22947487
-0.3231446 -0.07141507 0.16964981
-0.3709152 -0.099036515 0.2212414
-0.34510636 -0.10202329 0.17955641
-0.2115723 0.043616936 -0.085619524
-0.3156442 -0.03194087 0.1331909
-0.3155318 -0.024942448 0.1090315
-0.37584627 -0.11800122 0.2389253
-0.23588741 0.026873536 -0.0035667978
-0.31187695 -0.052186005 0.1509014
-0.4033738 -0.19268033 0.26854205
-0.24848151 -0.002839555 0.06574041
-0.4160733 -0.18854553 0.3044576
-0.28208122 -0.028803498 0.13449034
-0.43403563 -0.17243065 0.25432068
-0.2707699 -0.011443902 0.12620537
-0.32620114 -0.036143195 0.1383384
-0.21448246 0.04506284 -0.07341255
-0.25196123 0.009541459 0.10009673
-0.4298058 -0.1818173 0.29806715
-0.2575487 -2.539903e-05 0.06522902
-0.36052418 -0.1237113 0.23181888
-0.26179722 0.009770764 0.052176043
-0.35824192 -0.07086856 0.17371465
-0.4323475 -0.16817969 0.27081236
-0.20634691 0.03907526 -0.094312154
-0.22252338 0.027320562 0.027238801
-0.41969475 -0.14702146 0.2444496
-0.37894827 -0.12736094 0.22718649
-0.26217675 -0.0026093405 0.095665835
-0.22067717 0.018408556 0.0037840083
-0.42074156 -0.1696845 0.2911991
-0.4164988 -0.14698954 0.26175135
-0.42615888 -0.1662091 0.24771182
-0.3035672 -0.054604962 0.1614533
-0.31490174 -0.06629366 0.1786855
-0.3313088 -0.074689604 0.19422233
-0.19957606 0.034968466 -0.03278102
-0.3714056 -0.12508778 0.22416428
-0.3405357 -0.08944419 0.18811497
-0.2128377 0.013755133 0.008406069
-0.38716206 -0.1728304 0.24861042
-0.21304584 0.026228895 -0.046499632
-0.2043096 0.021442382 -0.0033576563
-0.2562823 0.022117328 0.027014725
-0.19325408 0.03326779 -0.043241594
-0.39078933 -0.11106162 0.21013011
-0.3823344 -0.12928462 0.20886727
-0.33661434 -0.08208206 0.16054347
-0.30337396 -0.06809892 0.16410305
-0.32568103 -0.034559794 0.15305863
-0.30533367 -0.037030287 0.13642757
-0.2781526 -0.046204865 0.120743826
-0.2070686 0.029486082 0.005357921
-0.34163398 -0.0679345 0.14848389
-0.32737553 -0.035400793 0.1570534
-0.3449924 -0.10540539 0.1825803
-0.3626095 -0.08949758 0.19102825
-0.26888618 -0.023289189 0.09727037
-0.2797732 0.009906147 0.08551915
-0.21378392 0.019213121 0.022847574
-0.2513855 -0.011638092 0.092416674
-0.2521259 0.022041153 0.024193939
-0.3827855 -0.111571535 0.23404664
-0.39766797 -0.15129483 0.2716784
-0.2467097 0.00060708635 0.08698246
-0.36462605 -0.13473487 0.23195651
-0.1907134 0.031769376 -0.04008112
-0.34763306 -0.085856654 0.18581082
-0.27629495 -0.008632928 0.08262043
-0.3077105 -0.039726943 0.15973893
-0.32147625 -0.043746475 0.14456038
-0.4163585 -0.18120423 0.3009841
-0.25712985 0.021139402 0.06126962
-0.28280368 -0.017299747 0.13635182
-0.30972973 -0.024179338 0.104973115
-0.24192801 0.029417628 -0.0041382276
-0.2717203 -0.015132237 0.12341207
-0.29805326 -0.06958105 0.14432041
-0.18927166 0.020116052 -0.052564237
-0.327284 -0.08541152 0.18757541
-0.3782897 -0.10643922 0.20829305
-0.3967405 -0.16342784 0.24140419
-0.30249888 -0.053892005 0.15121724
-0.17948183 0.01363351 -0.09339146
-0.25296497 0.033731103 0.036624614
-0.2048832 0.030548796 -0.0016967393
-0.30353314 -0.056741282 0.15800337
-0.32234624 -0.028877167 0.12423147
-0.22319765 0.031243619 -0.09164688
-0.28101498 0.00856683 0.11519627
-0.25965226 0.021115925 0.03106615
-0.21850301 0.020089317 -0.0040983036
-0.18115304 0.026844958 -0.06747888
-0.24171028 0.0020686807 0.054819074
-0.41121534 -0.13445492 0.23775226
-0.39027867 -0.112456545 0.21525869
-0.4161089 -0.14897838 0.25144354
-0.2796126 -0.011953447 0.11145143
-0.36530146 -0.09055875 0.19233124
-0.38635722 -0.14180762 0.24113554
-0.34612828 -0.05965572 0.18263285
-0.37261632 -0.094926536 0.20569155
-0.21866344 0.0127289845 0.017836425
-0.315853 -0.045328103 0.12483796
-0.28950623 -0.023334568 0.10136853
-0.3266436 -0.059769418 0.18020768
-0.2554906 -0.019378593 0.09316935
-0.22723942 0.010990034 0.028967887
-0.35071257 -0.069525644 0.17679243
-0.2981173 -0.06961568 0.14815067
-0.33490497 -0.0934877 0.17056844
-0.3942056 -0.13593075 0.25742084
-0.23642369 0.04712914 -0.014950436
-0.22690493 0.04335173 -0.015655145
-0.28295076 -0.0071220566 0.08268151
-0.38007748 -0.16741657 0.25197518
-0.20939271 0.04055035 -0.04046359
-0.4267796 -0.15716016 0.25078827
-0.2053208 0.017296692 -0.014171045
-0.2955998 -0.047085643 0.12379429
-0.24892916 -0.010028388 0.07590324
-0.32874748 -0.0874014 0.18904817
-0.22949973 0.0313341 0.023777097
-0.29881608 -0.031299375 0.13042954
-0.2797239 -0.029765079 0.12657201
-0.21362822 0.044812586 -0.06474119
-0.2726383 0.02742698 0.05869817
-0.28132454 0.015933314 0.06578842
-0.27775565 0.011757132 0.095296696
-0.34189028 -0.12047714 0.19571802
-0.3067857 -0.07640498 0.15158093
-0.21902575 0.027970292 -0.038251884
-0.33372816 -0.08881816 0.18666838
-0.31986713 -0.029844055 0.14221683
-0.30678138 -0.05700495 0.16777124
-0.26415047 -0.0057031494 0.114442945
-0.3280067 -0.06482516 0.14392641
-0.28257933 -0.04592777 0.13652195
-0.37907827 -0.15082586 0.22779648
-0.33919966 -0.08603394 0.20544155
-0.4083525 -0.13451332 0.22847559
-0.2925495 -0.035369866 0.15385711
-0.43417934 -0.16917998 0.25517005
-0.35072893 -0.07150097 0.17375255
-0.36363772 -0.11114683 0.23118128
-0.37300253 -0.15865833 0.23404582
-0.30736274 -0.065314025 0.14169207
-0.31862164 -0.058106393 0.1366753
-0.30049488 -0.023112157 0.14387062
-0.29984263 -0.051914647 0.15399009
-0.41941038 -0.14728165 0.2704194
-0.33794674 -0.05127703 0.16534008
-0.32167783 -0.033425365 0.11501914
-0.24575977 0.006892232 0.077808514
-0.22001508 0.04788083 -0.07913949
-0.21803185 0.014826075 0.02929582
-0.2682477 0.029858533 0.052549712
-0.29492825 -0.001883233 0.08054298
-0.35483113 -0.1150492 0.22753146
-0.29215622 -0.03448765 0.13243131
-0.36692408 -0.11599898 0.19493684
-0.35841137 -0.08386737 0.16496928
-0.38521665 -0.15408424 0.26167738
-0.39057648 -0.11639173 0.22839013
-0.35321048 -0.09699353 0.21710864
-0.20534098 0.01911008 -0.022850592
-0.18984282 0.016005287 -0.057481773
-0.25447014 0.03359276 0.009258486
-0.24580364 -0.0038436726 0.08711989
-0.25250652 0.028737344 0.045963205
-0.285331 -0.002439933 0.12356654
-0.21271436 0.02712301 0.018633116
-0.2696106 0.009353148 0.1147854
-0.3927524 -0.11396224 0.21693347
-0.20187867 0.03666335 -0.036684506
-0.28317884 0.015098324 0.09756166
-0.2872546 -0.022745658 0.14182384
-0.20527409 0.039341994 -0.08596374
-0.36090904 -0.10380679 0.18320519
-0.3775854 -0.10157359 0.18359517
-0.33219293 -0.055761978 0.15675268
-0.37486342 -0.12273056 0.22249399
-0.2798113 0.015812986 0.060857303
-0.27860105 -0.042894043 0.11782037
-0.3656362 -0.0993572 0.17982008
-0.26036477 0.03160467 0.024621919
-0.33004233 -0.04117146 0.1291126
-0.25564203 -0.0055470634 0.072190404
-0.32454747 -0.06415105 0.14287297
-0.41828492 -0.16587599 0.2874573
-0.40739617 -0.15294681 0.27442527
-0.37038067 -0.12433882 0.2028761
-0.42711002 -0.15611446 0.2534603
-0.3062768 -0.080180146 0.15719113
-0.39567858 -0.15062264 0.2297635
-0.33160788 -0.064863 0.14442632
-0.3051721 -0.009083988 0.11128362
-0.38783747 -0.110694334 0.22872156
-0.3709489 -0.13593 0.24537027
-0.3660849 -0.09103853 0.21342626
-0.29656258 -0.003966065 0.10515206
-0.33841172 -0.09674774 0.20471099
-0.32333246 -0.088539556 0.18506838
-0.32530603 -0.06147016 0.16099018
-0.36236024 -0.10685857 0.22716162
-0.3740642 -0.0940443 0.21161014
-0.25115785 0.034944832 0.0009931698
-0.21237339 0.022896962 -0.026593525
-0.23989257 -0.004874315 0.06698094
-0.4302128 -0.16186452 0.26485845
-0.37162825 -0.13887948 0.24288368
-0.3152611 -0.033826422 0.11442867
-0.2705068 0.025388584 0.046680734
-0.33516437 -0.07410681 0.19419906
-0.27715096 -0.02375167 0.120832294
-0.2345196 0.01759646 0.019801471
-0.3830289 -0.14913338 0.24728927
-0.389287 -0.11050269 0.23356444
-0.32814622 -0.06253825 0.16231939
-0.33748996 -0.063310795 0.16422671
-0.18546526 0.031021418 -0.05055413
-0.33971304 -0.058940217 0.1605861
-0.31625 -0.048146278 0.16841364
-0.3032689 -0.026918236 0.14765128
-0.3611654 -0.13818449 0.23460874
-0.34836015 -0.06788492 0.19031794
-0.20485085 0.022742253 -0.04979311
-0.2624948 0.0217511 0.06293227
-0.21713285 0.04264771 -0.09359149
-0.41516894 -0.17852452 0.25735274
-0.3470354 -0.10765045 0.18486154
-0.3969952 -0.12551674 0.20738035
-0.36493877 -0.14859584 0.22396246
-0.35848472 -0.07224966 0.16962025
-0.42363095 -0.15526214 0.2711586
-0.28105995 0.0129708825 0.06032314
-0.29065517 0.0054860916 0.10595113
-0.32145536 -0.07250925 0.18949865
-0.28999406 0.006699443 0.07850966
-0.35518736 -0.09659927 0.1964488
-0.25338838 0.006546883 0.09988329
-0.3284194 -0.080837086 0.19829252
-0.2571051 0.033073127 0.04056069
-0.38884 -0.12739897 0.24905713
-0.2680019 -0.0013956837 0.09586762
-0.24500178 0.034921374 -0.018337507
-0.24063307 0.038927548 -0.02576029
-0.3631776 -0.12338206 0.24065039
-0.41034484 -0.175904 0.27490062
-0.21263723 0.034498174 -0.0044686384
-0.43265057 -0.17216845 0.29497603
-0.28901803 -0.0073511973 0.10715458
-0.2532052 0.023979232 0.020627126
-0.23453964 0.033343278 0.023352068
-0.4026361 -0.17849556 0.2780709
-0.36158472 -0.080251694 0.1940819
-0.29392308 -0.040060654 0.15398784
-0.40420634 -0.1295401 0.2232636
-0.31446233 -0.06768826 0.14474434
-0.23977196 0.019581802 0.055200256
-0.23955384 0.044121776 -0.00039599836
-0.36465913 -0.13386565 0.21069321
-0.3570394 -0.13132608 0.2279072
-0.35189176 -0.06633703 0.18938509
-0.3846959 -0.1705453 0.2615537
-0.39170378 -0.16393764 0.26658937
-0.26878113 -0.018735424 0.11496715
-0.3691811 -0.09323954 0.2158065
-0.20430069 0.02310022 -0.07303521
-0.25642145 0.038297072 0.030043542
-0.23258728 0.039284598 0.005778484
-0.3946268 -0.123765886 0.22954443
-0.25670987 0.010415424 0.11440866
-0.33059746 -0.05355919 0.17513902
-0.34043655 -0.06342935 0.16471517
-0.2592952 0.00025380403 0.108547956
-0.3677268 -0.1350565 0.23663875
-0.38109002 -0.10590936 0.20818031
-0.20719334 0.019038662 -0.018018689
-0.19996354 0.019772472 -0.043064117
-0.26025927 0.0016185557 0.063960806
-0.32009923 -0.029193446 0.11669412
-0.22434938 0.008233389 0.038778882
-0.40031388 -0.12795213 0.21354912
-0.4251365 -0.15561706 0.24805339
-0.2691482 0.017290693 0.07214026
-0.3983445 -0.17637375 0.2737652
-0.33652103 -0.09042176 0.20868498
-0.30563247 -0.009723786 0.1018216
-0.22007538 0.04229993 -0.023103196
-0.38970166 -0.138463 0.21806633
-0.33624467 -0.09533961 0.19285783
-0.22494167 0.020280622 0.003161423
-0.256804 0.03673897 0.021496654
-0.3880407 -0.1532565 0.2718238
-0.24691516 0.044515263 0.0068033636
-0.3042463 -0.03091366 0.110386275
-0.25253195 0.031471312 0.0017770901
-0.32761532 -0.04906765 0.12972066
-0.330967 -0.0858198 0.19847956
-0.38142174 -0.14901915 0.25771016
-0.18399847 0.026105266 -0.059718523
-0.24798514 0.02979844 0.041003343
-0.3125473 -0.046775647 0.12571009
-0.24751507 0.00097590405 0.05942543
-0.38510248 -0.14151281 0.2612576
-0.42807508 -0.16015843 0.2501564
-0.41603404 -0.18206877 0.2606484
-0.39500797 -0.132139 0.2335661
-0.21463586 0.028256122 -0.05918352
-0.2782767 -0.015414873 0.113934904
-0.29424995 -0.051517714 0.1276006
-0.24265134 -0.0021577254 0.079878554
-0.40502617 -0.14027894 0.2627322
-0.20267722 0.033305295 -0.015834987
-0.32066044 -0.029689526 0.15239736
-0.29144898 -0.057316177 0.13244747
-0.2644547 0.025712147 0.028219
-0.258864 0.027855903 0.01640106
-0.33010536 -0.11005144 0.18482685
-0.3422689 -0.062123336 0.14334604
-0.27382833 0.010051465 0.11428192
-0.41477406 -0.17240696 0.29287168
-0.30954453 -0.032547303 0.112539396
-0.33844408 -0.07276827 0.19342157
-0.4054935 -0.17465249 0.2731456
-0.29794472 -0.0057915803 0.10737607
-0.21724969 0.019376678 0.03396574
-0.23808447 0.006074953 0.046107043
-0.37475908 -0.12518662 0.22468844
-0.2572773 0.0024696216 0.10569121
-0.3596365 -0.14182322 0.22796169
-0.3535164 -0.09239192 0.2130133
-0.22780432 0.034777105 0.013470877
-0.36255533 -0.08250469 0.16632985
-0.22890116 0.010953375 0.057301287
-0.38584566 -0.12406452 0.2456717
-0.31591982 -0.063889295 0.14152098
-0.3363102 -0.049818154 0.16249396
-0.24452393 0.024219425 0.012861557
-0.33714938 -0.08174635 0.18075536
-0.24489942 0.0010102903 0.058091104
-0.30937418 -0.041761167 0.12079471
-0.2236938 0.04860056 -0.05432197
-0.26227444 0.023196941 0.028755777
-0.37807256 -0.14745504 0.24966109
-0.2789521 -0.009384381 0.12873827
-0.27930173 0.014649071 0.057438843
-0.31842455 -0.054434985 0.15377307
-0.32263795 -0.05171094 0.17244576
-0.32415253 -0.102222845 0.17702293
-0.18988614 0.02448325 -0.04380407
-0.23280622 0.021069672 0.04806512
-0.200503 0.020662077 -0.016509145
-0.2535713 0.03228866 0.039797943
-0.291969 0.009543706 0.08915037
-0.30757296 -0.01475174 0.12730333
-0.38614815 -0.15339255 0.26567942
-0.2784407 -0.026458388 0.12343284
-0.39066127 -0.18210016 0.26216766
-0.37222207 -0.13495083 0.25089282
-0.39646405 -0.1821304 0.278696
-0.29975972 -0.027466454 0.1476886
-0.28734058 -0.013001967 0.1330778
-0.3116602 -0.053987823 0.13207446
-0.4275806 -0.1629451 0.27151415
-0.26129588 -0.019974906 0.11043073
-0.28320715 -0.027972328 0.10475019
-0.39609855 -0.1282646 0.2507763
-0.43089592 -0.18127297 0.28767365
-0.22728185 0.0073595624 0.04660215
-0.3479527 -0.059704512 0.1562435
-0.42298663 -0.18522218 0.29158714
-0.33996314 -0.07004912 0.1911743
-0.3402316 -0.11711374 0.19248225
-0.29047582 -0.036921084 0.1344009
-0.24088427 0.047015723 -0.0073957294
-0.31075782 -0.015575264 0.10872817
-0.4056995 -0.17802308 0.2762029
-0.41945505 -0.18221681 0.26122415
-0.23533423 0.045860443 -0.031518202
-0.35451227 -0.08191905 0.20372935
-0.34794354 -0.09629881 0.1952384
-0.22508387 0.024161309 -0.009161267
-0.30524218 -0.017823953 0.13973315
-0.4062685 -0.17046039 0.2900192
-0.1846671 0.015151158 -0.07476516
-0.27636734 0.015808536 0.050056517
-0.30769616 -0.052485216 0.17120379
-0.39656436 -0.11923228 0.24271163
-0.24393095 0.04504461 -0.00585163
-0.22766465 0.038098518 -0.06770249
-0.34209105 -0.07279822 0.1733528
-0.32689968 -0.053247698 0.15380563
-0.20767726 0.024379423 -0.07828136
-0.31597558 -0.022828752 0.14099853
-0.28077865 -0.0049989372 0.102932245
-0.33798826 -0.091895305 0.1695366
-0.37030828 -0.14311118 0.21973093
-0.23964947 0.00029801019 0.07431328
-0.26537538 0.0138425315 0.047337513
-0.22220704 0.043650925 -0.025382292
-0.39219183 -0.17986296 0.27046555
-0.19848965 0.033148944 -0.10343781
-0.43762124 -0.1725912 0.28788748
-0.25333986 -0.0124675315 0.097243875
-0.4406237 -0.17420505 0.29477218
-0.35421112 -0.1321722 0.20781937
-0.33748958 -0.050150517 0.13840188
-0.27752793 0.02094985 0.061739728
-0.40494928 -0.18631727 0.2630298
-0.26882604 -0.0015110783 0.07152513
-0.3801337 -0.16125254 0.23729968
-0.25874466 -0.009352298 0.07852163
-0.32369977 -0.04568529 0.12617436
-0.40646136 -0.1623361 0.24168232
-0.3701065 -0.14625311 0.2430226
-0.40111682 -0.15298294 0.27364254
-0.40188774 -0.12749399 0.24646708
-0.42937464 -0.17644057 0.29839066
-0.37940055 -0.12990929 0.22953601
-0.3440732 -0.059492894 0.16164848
-0.19897537 0.032574676 -0.020894118
-0.2970277 -0.0014885012 0.102623984
-0.2562187 0.011236353 0.07570295
-0.33077312 -0.06160593 0.1618224
-0.18711674 0.031405967 -0.08011217
-0.35584754 -0.0840389 0.20580783
-0.23677847 0.038874753 -0.037923753
-0.42815793 -0.17407279 0.2755661
-0.30686617 -0.0202991 0.1010066
-0.4368295 -0.16985914 0.28968152
-0.37265307 -0.12304162 0.24304184
-0.19873895 0.03663389 -0.07834429
-0.41761047 -0.18790655 0.30223346
-0.22426578 0.028674362 -0.02951585
-0.3908709 -0.16392067 0.26400557
-0.288906 -0.02275482 0.121462
-0.3299351 -0.07698752 0.1961097
-0.33907384 -0.05059606 0.17357497
-0.36779824 -0.09713052 0.219124
-0.3568231 -0.08058241 0.20282778
-0.2914195 0.008712413 0.08612734
-0.26823142 0.016703654 0.044103753
-0.22203729 0.050370663 -0.052334435
-0.26930663 0.022850856 0.038947903
-0.27696586 -0.011738075 0.08655424
-0.2808136 -0.028604656 0.13082865
-0.27803448 -0.022774506 0.09861332
-0.20784451 0.02500419 -0.06771419
-0.29756707 -0.04830558 0.1525061
-0.2492252 -0.012195101 0.08477427
-0.26277712 -0.021679103 0.11240621
-0.4302109 -0.16414739 0.25060797
-0.29617786 -0.011892399 0.09090803
-0.2043098 0.036162738 -0.027760865
-0.24716268 0.02237565 0.054305606
-0.3892882 -0.12356856 0.22511907
-0.26400754 -0.005976908 0.10028572
-0.30315217 -0.051248662 0.16540483
-0.3272304 -0.036810383 0.15439266
-0.26891422 0.016584279 0.11046986
-0.3688521 -0.12277315 0.22175185
-0.32343304 -0.06952848 0.14755918
-0.31210902 -0.07571089 0.17207934
-0.33277345 -0.107978195 0.19673377
-0.174644 0.020124098 -0.098396726
-0.26169786 0.025948282 0.055683978
-0.39932573 -0.13736406 0.23882405
-0.28094065 -0.03274718 0.12941097
-0.28635836 -0.0099145025 0.109311864
-0.2940382 0.0052570757 0.08892737
-0.31216124 -0.06704044 0.16892776
-0.4016267 -0.18494293 0.28189483
-0.25293943 0.026411768 0.050581865
-0.3998051 -0.1382216 0.21915771
-0.37831718 -0.11983475 0.22033873
-0.31386977 -0.06448722 0.16221812
-0.31897968 -0.03125477 0.13722788
-0.42923796 -0.16463384 0.24679746
-0.33435795 -0.06479041 0.1651503
-0.43024245 -0.16254446 0.2532153
-0.28899845 -0.040938266 0.11741707
-0.34702533 -0.06899995 0.15013921
-0.2987186 -0.008325594 0.13035072
-0.3146432 -0.021765145 0.13848719
-0.30873868 -0.058022242 0.13532028
-0.3269945 -0.08423263 0.16122983
-0.3267715 -0.03780473 0.15139827
-0.34380347 -0.08168968 0.16112183
-0.21043822 0.022477843 -0.028956218
-0.3764249 -0.14360887 0.25051594
-0.29346445 -0.00259782 0.10521844
-0.33622524 -0.095259234 0.20018768
-0.2336718 0.002461386 0.05896389
-0.34454206 -0.08754173 0.18692447
-0.26705337 -0.00960746 0.117431164
-0.28858167 0.00879059 0.104623824
-0.20003971 0.020388968 -0.048732027
-0.42227295 -0.18527696 0.2848744
-0.29617113 -0.029575596 0.10803667
-0.25655943 0.007979421 0.11206362
-0.42679965 -0.16384041 0.26766542
-0.29752707 -0.02132819 0.12129858
-0.42322844 -0.16502419 0.26679248
-0.2041101 0.03998237 -0.06964911
-0.17831127 0.016707217 -0.09225011
-0.18481572 0.021455985 -0.064432815
-0.19457226 0.032959677 -0.03391915
-0.19705762 0.037363943 -0.049214784
-0.323166 -0.07592964 0.17371115
-0.3873768 -0.17805012 0.25332767
-0.28034213 -0.039223753 0.1351559
-0.30441892 -0.03452615 0.1546375
-0.27439907 0.024820339 0.057990424
-0.2949856 -0.03303118 0.13148898
-0.24566016 0.004455503 0.052888133
-0.24222542 0.024974957 0.008938406
-0.21360087 0.016692951 0.0008269958
-0.28294548 0.011484224 0.0845138
-0.43424344 -0.16618577 0.2600568
-0.23177338 0.037972633 0.008673426
-0.35659975 -0.14247316 0.2173822
-0.268407 0.005354481 0.061822668
-0.3366447 -0.048353173 0.16583492
-0.2195851 0.0308847 -0.06835477
-0.35589802 -0.13412169 0.22829702
-0.3386426 -0.07946971 0.17890276
-0.36534268 -0.08204589 0.20305216
-0.25488278 0.04051059 0.023826875
-0.24894166 0.027526032 0.008916408
-0.24473928 0.03917583 0.018372934
-0.3278801 -0.09476435 0.19125469
-0.33590925 -0.052178156 0.15401375
-0.30930722 -0.068788685 0.1654931
-0.41856298 -0.1645116 0.26572567
-0.375735 -0.15274912 0.24959311
-0.36749405 -0.13230583 0.20965973
-0.278386 -0.009652652 0.084441565
-0.34788015 -0.07184219 0.15280312
-0.37819296 -0.09907323 0.18941207
-0.39274243 -0.16030407 0.25859186
-0.35665926 -0.09187319 0.1719346
-0.36040667 -0.13245744 0.22936133
-0.247021 0.013992862 0.03665531
-0.2563906 0.0057457928 0.108039066
-0.31574202 -0.08427604 0.18025072
-0.37368187 -0.0985946 0.22120255
-0.29848507 -0.016786225 0.09652851
-0.34313837 -0.070173636 0.15069056
-0.2683544 0.022653531 0.035654694
-0.20570254 0.018812025 -0.0031082705
-0.2603155 0.014978172 0.07201813
-0.2886152 0.0035038423 0.095568195
-0.31130132 -0.07830076 0.17430282
-0.25793493 0.004075691 0.11026563
-0.34147623 -0.10686398 0.1834353
-0.4116409 -0.16277932 0.26327002
-0.311286 -0.01734075 0.13488898
-0.3163462 -0.034289435 0.13539287
-0.35321397 -0.11220564 0.22691306
-0.3144123 -0.076714136 0.17328045
-0.40033782 -0.15822871 0.25771224
-0.23254901 0.008795375 0.06535709
-0.21042155 0.03720413 -0.018484369
-0.28617346 -0.018101458 0.09537564
-0.3693918 -0.13711098 0.23471144
-0.21050476 0.025135063 -0.047397487
0.06764906 -0.09580171 -0.10602222
0.25055528 -0.17699148 -0.1306924
0.09552259 -0.10971928 -0.32300708
-0.05255372 -0.035782967 -0.3020132
-0.2140353 0.061578583 -0.11495161
-0.072200045 -0.025973316 -0.2866426
-0.045303866 -0.03940291 -0.2731204
0.024110183 -0.052601464 0.039559275
-0.14977667 0.029493466 -0.21968184
0.018106107 -0.054332484 -0.027399039
-0.16403936 0.05427392 0.016504936
-0.14996135 0.029585693 -0.30937582
-0.18560237 0.044391382 0.007700298
0.103425905 -0.11366552 -0.18282421
-0.049983885 -0.020334287 -0.24604242
0.02997113 -0.07698867 -0.049000204
0.023405928 -0.06766279 0.050855473
-0.072951764 -0.025597977 -0.2437628
0.23212041 -0.17792428 -0.205988
-0.18723167 0.0740245 0.024006039
0.25370294 -0.18870068 -0.21553546
-0.0769351 -0.023609065 -0.11994165
0.15147705 -0.13765803 -0.30592653
0.020598711 -0.072308905 -0.057731166
-0.12574156 0.0007606186 -0.28614104
0.1358614 -0.12986094 -0.27766305
0.15821229 -0.1292258 0.11230761
-0.159473 0.03433497 -0.25479385
0.074379206 -0.0824303 -0.24736065
-0.08855115 -0.0010771714 -0.33686337
-0.14497602 0.016693788 -0.0015606284
-0.053347867 -0.03538646 -0.12318729
0.0010691881 -0.045825705 -0.2855979
0.23238885 -0.17756864 -0.07465955
0.14891222 -0.11964555 -0.28998214
-0.08731923 -0.016622156 -0.006863637
-0.14918266 0.012465028 -0.1298953
-0.103544 -0.010322921 -0.057812095
0.033115514 -0.061826855 -0.10099663
0.20533344 -0.14781737 -0.20473671
0.14479347 -0.13432087 -0.0498824
-0.17313688 0.04175358 0.01968956
-0.053498268 -0.031734753 -0.37174582
0.09718402 -0.09381705 -0.072703004
0.1484588 -0.11237769 0.13511945
0.17292452 -0.14836702 -0.2413797
0.013479205 -0.047590356 0.087568104
0.033060104 -0.07853102 -0.1395273
-0.1422391 0.02472442 -0.39148793
-0.037853822 -0.04312281 -0.2447135
-0.12861325 0.0021944828 -0.21273768
-0.13067365 0.020212315 -0.044252947
0.04209771 -0.066311784 -0.05184617
-0.24260335 0.07180543 -0.056482926
0.18717083 -0.15548038 -0.20161153
0.024491748 -0.07425274 -0.104117885
0.07236477 -0.081424475 -0.2185462
0.07992785 -0.08520081 -0.23137376
0.1242679 -0.12407222 -0.017749906
-0.15833932 0.03376889 -0.097188756
-0.06507047 -0.012801377 -0.17077644
-0.0051361276 -0.042727347 -0.05120426
-0.010446393 -0.025849229 0.058094576
0.056375757 -0.07344097 -0.12281841
0.073143825 -0.07894924 0.047023233
0.11513929 -0.102782324 -0.13124989
0.15788233 -0.1271369 -0.29918408
0.12509009 -0.107750885 -0.19847031
0.047791004 -0.0691545 -0.1802943
0.10629912 -0.09836832 -0.21410029
0.09067572 -0.10729919 -0.29110774
0.07357857 -0.09876236 -0.3192517
-0.1426334 0.009194914 -0.2724138
0.2536024 -0.18865049 -0.17709503
0.02401054 -0.05728064 -0.017414585
-0.16878486 0.04100454 -0.036301687
-0.20128345 0.05521144 -0.20945495
-0.06876568 -0.010956299 -0.33023033
-0.07036173 -0.026891215 -0.23237504
0.010681763 -0.0506254 -0.14997113
-0.04294657 -0.015618364 0.07609093
0.11181038 -0.11741649 -0.31898528
0.092983 -0.08347465 0.074778825
0.19796813 -0.15370867 -0.29078457
-0.09989446 -0.012145175 -0.16677731
0.14942038 -0.13663113 -0.077004924
-0.1354952 0.0056307353 -0.36617875
0.20308234 -0.16342522 0.020874392
-0.083059 -0.0038194982 -0.070554145
-0.07113619 -0.009772697 -0.14022279
-0.056838192 -0.03363652 -0.031300865
0.0045583993 -0.020953866 0.086509794
0.1604248 -0.12539393 -0.24666634
0.05953546 -0.075018644 -0.22587132
-0.18685098 0.047971144 0.013906509
0.2461386 -0.18492374 -0.22063583
0.080497876 -0.08548543 -0.28999382
0.095516175 -0.0819575 0.0837587
0.19756165 -0.14393686 0.0037681311
0.042104483 -0.07747583 0.05460374
-0.11395244 0.011605981 -0.12115933
-0.05258087 -0.019037575 -0.30187634
-0.06714748 -0.011764303 -0.22292843
-0.1527468 0.026128087 -0.40028727
0.18856 -0.15617402 -0.15454847
0.19369343 -0.15873721 -0.14779083
-0.09402903 0.01127515 0.01914174
-0.15697199 0.016354352 -0.24674612
0.011964373 -0.051265825 -0.15536135
0.20884788 -0.14957218 -0.1371223
0.17457463 -0.14919096 -0.08664164
-0.075319335 -4.772935e-05 0.064742275
0.18499732 -0.15439513 -0.082829535
-0.1473396 0.011544779 -0.2823233
-0.16730231 0.029938076 -0.3580055
-0.0056850296 -0.05918511 -0.065930955
0.0827213 -0.10332747 -0.074384496
-0.026143417 -0.024022087 0.036685094
0.21002054 -0.16688953 -0.15177597
-0.16357955 0.019653587 -0.25870806
-0.0073836413 -0.057216603 0.012448737
0.07146333 -0.08097438 -0.23579666
0.08737224 -0.08415698 0.059882186
-0.17476448 0.030997552 -0.013717547
0.17539853 -0.1055683 0.14216891
-0.13183638 0.042845823 0.0358047
0.17772913 -0.1340342 -0.1838448
-0.041018218 -0.04154281 -0.09889473
0.007947393 -0.065991916 -0.28197426
-0.03475625 -0.04466949 -0.06031584
0.048987046 -0.08648352 -0.212902
-0.13877141 0.023998408 -0.22798014
-0.13588093 0.005912106 -0.04812147
0.18521832 -0.1545055 0.043381575
0.23064145 -0.16045396 -0.19981326
