-0.23800105 -0.41820198 0.32932198
-0.120677784 -0.46678108 0.3757535
-0.29949147 -0.3893928 0.28760386
-0.21515441 -0.42758134 0.34147844
-0.13058536 -0.46216857 0.38313836
-0.21897003 -0.42933115 0.33089864
-0.19060461 -0.43475622 0.33999825
-0.30335504 -0.3767788 0.2919909
-0.31846255 -0.36877286 0.28026724
-0.20655681 -0.42554647 0.33224937
-0.082234666 -0.4853201 0.398089
-0.1814576 -0.43493685 0.35405463
-0.11909093 -0.4745981 0.3897908
-0.35178578 -0.36370173 0.26031652
-0.22879872 -0.42449218 0.3255028
-0.15162098 -0.45146084 0.37197682
-0.117176205 -0.4647911 0.38127336
-0.36807257 -0.35382536 0.25064296
-0.124458104 -0.47272733 0.37639028
-0.14989412 -0.44905937 0.36576942
-0.34453246 -0.3687771 0.27423087
-0.100431174 -0.48201284 0.39908266
-0.111380935 -0.47036082 0.39214107
-0.1880556 -0.4446632 0.3487188
-0.34595984 -0.35763317 0.26236746
-0.18105258 -0.4448589 0.35847992
-0.10099466 -0.48422498 0.38922763
-0.32723844 -0.3645553 0.27609292
-0.13503784 -0.46103776 0.3814817
-0.12864326 -0.45988047 0.38036388
-0.28932473 -0.38702175 0.30286992
-0.30542913 -0.38035554 0.29523456
-0.3353631 -0.37022224 0.26772338
-0.38597792 -0.3423146 0.25196537
-0.22820473 -0.41508305 0.32133335
-0.3255409 -0.36554888 0.27891952
-0.2629818 -0.3951993 0.30839592
-0.17336407 -0.44301373 0.36216614
-0.24803111 -0.40949947 0.32488218
-0.3007296 -0.39106444 0.2920408
-0.09484936 -0.47542608 0.3902806
-0.2527739 -0.40718877 0.3086378
-0.27149054 -0.39117944 0.3038419
-0.20591062 -0.4346177 0.34476414
-0.2849634 -0.39409322 0.3061089
-0.2916716 -0.38577312 0.30159944
-0.08995193 -0.48636708 0.398578
-0.07970606 -0.4762995 0.40769175
-0.100820884 -0.47547534 0.38603783
-0.22986065 -0.41887903 0.33415025
-0.38187706 -0.34552073 0.23924553
-0.24040642 -0.41981497 0.32281154
-0.24233472 -0.40760225 0.3145887
-0.35321492 -0.3660538 0.26652426
-0.34071925 -0.36336002 0.27726653
-0.10008897 -0.48445734 0.3972016
-0.2440866 -0.41511866 0.31508246
-0.15810718 -0.45718947 0.35988033
-0.3461922 -0.36605054 0.2628519
-0.21745798 -0.41683096 0.33226332
-0.19378188 -0.4418369 0.34504315
-0.31295693 -0.37654263 0.27791455
-0.31009796 -0.37521157 0.28027144
-0.10309334 -0.4779624 0.39832196
-0.35771877 -0.35793716 0.26927134
-0.09026323 -0.47432587 0.39495152
-0.13476713 -0.4701687 0.37680292
-0.37725744 -0.34093225 0.25278878
-0.0964732 -0.4793566 0.38762766
-0.2516355 -0.40991095 0.32303107
-0.24591523 -0.40408406 0.31455743
-0.25618416 -0.40487456 0.30680683
-0.34971285 -0.367707 0.26696473
-0.18891248 -0.43041056 0.3464552
-0.23275319 -0.42253366 0.33037692
-0.21085353 -0.42087165 0.33902472
-0.25663498 -0.41082132 0.31071728
-0.24621478 -0.410308 0.31196502
-0.14877741 -0.46011883 0.37491983
-0.33317134 -0.37543094 0.27422324
-0.16665077 -0.45466238 0.35851836
-0.2833345 -0.3959741 0.29473358
-0.36868337 -0.35802537 0.25492528
-0.17053384 -0.45134777 0.36284572
-0.21320291 -0.43253165 0.33882475
-0.25501394 -0.3990359 0.31391594
-0.31602353 -0.37635913 0.27644324
-0.14308514 -0.46131894 0.37817264
-0.14359128 -0.4645039 0.3678438
-0.32140303 -0.37693587 0.2875767
-0.16064365 -0.44472736 0.36435318
-0.30325654 -0.38986877 0.2908186
-0.10966146 -0.46837163 0.38507438
-0.18128473 -0.44791737 0.3523801
-0.24683204 -0.4164054 0.32200179
-0.33273032 -0.375349 0.2787393
-0.31408095 -0.38322192 0.28974524
-0.1402248 -0.46741837 0.3751422
-0.2964307 -0.39059108 0.28890812
-0.0970414 -0.48606053 0.3957024
-0.24166252 -0.4103735 0.3274507
-0.08032167 -0.47842562 0.3943067
-0.2194348 -0.42860642 0.33743057
-0.24997443 -0.41510013 0.31980896
-0.1360804 -0.45816138 0.37919033
-0.15832935 -0.4452247 0.36025873
-0.372365 -0.35312235 0.2616209
-0.13382614 -0.46774447 0.37113664
-0.17793758 -0.44532877 0.36035758
-0.2199974 -0.41964242 0.3378055
-0.36944765 -0.35649666 0.26204324
-0.3151368 -0.37500262 0.28993982
-0.10969785 -0.4759422 0.39511016
-0.23661408 -0.40788966 0.32080126
-0.16276458 -0.4504517 0.36816967
-0.22254543 -0.42400318 0.32499808
-0.36653793 -0.3571421 0.2640129
-0.35037577 -0.36667645 0.27037674
-0.20384653 -0.4318184 0.33389893
-0.20011684 -0.42680755 0.3366809
-0.35835296 -0.36353853 0.2644175
-0.23151278 -0.41690958 0.3193444
-0.36759228 -0.34544244 0.25483677
-0.22615983 -0.42539817 0.3262743
-0.38126332 -0.34177983 0.25463516
-0.3219068 -0.36740276 0.2811745
-0.13265954 -0.47036391 0.3808516
-0.364766 -0.34844726 0.26225555
-0.23660702 -0.41295937 0.33009863
-0.20798147 -0.42530084 0.3438629
-0.29909426 -0.37803674 0.29150534
-0.15368335 -0.44726396 0.36508137
-0.1511578 -0.45896113 0.37372577
-0.21958141 -0.41602337 0.32928568
-0.11510946 -0.4793272 0.38827303
-0.3283544 -0.3771079 0.2816747
-0.29671508 -0.38434303 0.2861601
-0.3779234 -0.3454646 0.24329145
-0.13931322 -0.45701826 0.3666637
-0.07272504 -0.4762315 0.3968395
-0.18195081 -0.43373466 0.35022384
-0.09459391 -0.48539698 0.39192808
-0.26006037 -0.40994424 0.31052366
-0.28862315 -0.39303634 0.3041048
-0.09329714 -0.47478992 0.39921924
-0.17864424 -0.44241413 0.3462257
-0.3562947 -0.35223866 0.25764108
-0.22052619 -0.4255078 0.32635337
-0.17257993 -0.44803685 0.3504951
-0.17984122 -0.43839005 0.34577933
-0.38102198 -0.33907193 0.24792448
-0.1502182 -0.45612118 0.36070472
-0.25291824 -0.411295 0.31096733
-0.2575971 -0.4065521 0.3201176
-0.20072111 -0.4295478 0.3349489
-0.1626345 -0.45679125 0.36178166
-0.2146112 -0.41943282 0.3376578
-0.1693208 -0.45368582 0.3594643
-0.23369184 -0.41469544 0.3181609
-0.19258028 -0.44032204 0.34186244
-0.11189206 -0.47333825 0.39370131
-0.22712405 -0.4225475 0.32311606
-0.3287857 -0.37494624 0.2722648
-0.14490233 -0.45691508 0.37672132
-0.16051939 -0.44517764 0.35730794
-0.13647953 -0.46671775 0.37001848
-0.15795156 -0.4470147 0.35793817
-0.08544482 -0.47510666 0.39470947
-0.31709564 -0.3808932 0.28898486
-0.19111137 -0.4354775 0.35346153
-0.20195287 -0.4297689 0.3477823
-0.3354155 -0.37366667 0.27825564
-0.12789829 -0.4647176 0.38525248
-0.38269827 -0.3399301 0.25113785
-0.27048495 -0.3934403 0.31022882
-0.31701854 -0.36983848 0.28393376
-0.21295105 -0.43090215 0.34159034
-0.08877838 -0.48007154 0.40450108
-0.36293957 -0.35453606 0.25267902
-0.12776813 -0.46773565 0.37239763
-0.35198322 -0.3534758 0.26694477
-0.34532693 -0.35670096 0.27046457
-0.11718495 -0.47754106 0.38193083
-0.13079107 -0.46601635 0.3707726
-0.15498744 -0.45018205 0.37053484
-0.26267847 -0.40860432 0.3145203
-0.22148654 -0.42802733 0.3293495
-0.22446668 -0.4200036 0.33667186
-0.14777902 -0.4557828 0.37533998
-0.35379338 -0.35577258 0.26982704
-0.35268268 -0.36065933 0.2718481
-0.34317794 -0.3655702 0.26323798
-0.11283481 -0.47261432 0.37950796
-0.094226554 -0.486382 0.39494652
-0.31526858 -0.37107387 0.2793236
-0.27293545 -0.40026698 0.29959014
-0.2528825 -0.41368413 0.31856263
-0.21297836 -0.4324736 0.3346879
-0.29892406 -0.38711122 0.2859294
-0.20605958 -0.43619087 0.3408026
-0.30466336 -0.37702924 0.2836186
-0.1614801 -0.4468575 0.35519195
-0.3594523 -0.35453886 0.2677942
-0.3315236 -0.36906773 0.26858476
-0.3107084 -0.38421088 0.29207012
-0.37924856 -0.3466673 0.25825995
-0.3209284 -0.36994573 0.2852248
-0.22829258 -0.41905895 0.32112885
-0.10116571 -0.47229 0.38947222
-0.12110692 -0.4753263 0.3874431
-0.30900633 -0.3790189 0.2935402
-0.11552207 -0.47330153 0.3921635
-0.13232231 -0.45887867 0.3797916
-0.34726393 -0.35522467 0.268046
-0.3479328 -0.36302376 0.27426535
-0.36228082 -0.35768113 0.2667896
-0.36528203 -0.35700682 0.25321206
-0.29966635 -0.37842715 0.28740957
-0.18493162 -0.43655583 0.34307042
-0.11956334 -0.4641483 0.37891585
-0.21596652 -0.42772815 0.32869655
-0.2273047 -0.41972303 0.3354221
-0.26348037 -0.39551866 0.31157184
-0.19478403 -0.4407811 0.34932035
-0.24786454 -0.40247032 0.31554058
-0.35633683 -0.3507836 0.26069477
-0.08728294 -0.47641054 0.39289948
-0.37988552 -0.34593022 0.24138114
-0.17023835 -0.44543326 0.36405778
-0.36157495 -0.3499477 0.254716
-0.3445412 -0.36799386 0.2647997
-0.14872035 -0.46345055 0.37025324
-0.13086876 -0.47196257 0.37822413
-0.09284271 -0.47882196 0.3893869
-0.38359955 -0.35145733 0.24734388
-0.34892455 -0.35717222 0.27155733
-0.08622366 -0.48593557 0.39636278
-0.21529412 -0.421712 0.34008765
-0.08276513 -0.4816243 0.39371085
-0.21553618 -0.43012014 0.3397857
-0.31865856 -0.37553012 0.28900552
-0.37450302 -0.3420295 0.252223
-0.11349666 -0.4680738 0.38968578
-0.29581374 -0.38741624 0.28703752
-0.11514743 -0.47386256 0.3788397
-0.26568335 -0.39586967 0.3030954
-0.09546216 -0.47390825 0.3964905
-0.2431247 -0.40749323 0.32517576
-0.1367774 -0.4643494 0.38136685
-0.35490516 -0.36068118 0.25766543
-0.33827558 -0.36848113 0.26603046
-0.22945403 -0.41151348 0.32829094
-0.09933779 -0.47863892 0.4000308
-0.3692985 -0.3454228 0.25172934
-0.12466228 -0.47486043 0.38092658
-0.10681434 -0.47832692 0.38323706
-0.2773613 -0.40040493 0.29938802
-0.17473257 -0.4391782 0.35901505
-0.12890433 -0.47003585 0.38474804
-0.3459615 -0.35583726 0.2651308
-0.2999492 -0.38281357 0.2845197
-0.26786858 -0.40668932 0.30991468
-0.22510043 -0.42564324 0.33484665
-0.29624304 -0.3896791 0.30018052
-0.09671426 -0.4762432 0.3998672
-0.11730333 -0.4769542 0.38957453
-0.26030084 -0.40835285 0.3175629
-0.34968114 -0.36026892 0.2731049
-0.19737765 -0.42646027 0.34296045
-0.35536063 -0.3639353 0.26082203
-0.29302773 -0.38495922 0.28824645
-0.20200926 -0.43544573 0.33670765
-0.32596922 -0.37693885 0.27431896
-0.27274588 -0.40269992 0.30187356
-0.3397574 -0.37122938 0.26853526
-0.33429047 -0.367609 0.2671708
-0.32328093 -0.37422082 0.27306277
-0.18281329 -0.44667748 0.34957254
-0.3757876 -0.34213483 0.2548572
-0.14491369 -0.46419713 0.3751347
-0.32846344 -0.36851624 0.2830927
-0.10846901 -0.4761843 0.38194683
-0.26115185 -0.4047963 0.31832764
-0.16563702 -0.44271016 0.36243743
-0.11042325 -0.4712545 0.38105273
-0.19697486 -0.43709144 0.35050532
-0.37747362 -0.35300022 0.25761285
-0.3306489 -0.37127936 0.28303683
-0.28627133 -0.3840756 0.29681394
-0.23928654 -0.41530594 0.31606334
-0.3029829 -0.37645113 0.28659916
-0.3546015 -0.35443985 0.25745067
-0.20828795 -0.43164694 0.34479237
-0.121231616 -0.4628434 0.38250858
-0.22003306 -0.4175197 0.3359045
-0.36803204 -0.34894484 0.25025207
-0.20515087 -0.42455176 0.3433725
-0.27839682 -0.39301777 0.30888134
-0.31554174 -0.3789545 0.2907169
-0.21387741 -0.42938295 0.33029184
-0.17966545 -0.44702974 0.34910196
-0.29261297 -0.39452434 0.29894403
-0.08486113 -0.48366722 0.4041485
-0.30846375 -0.38236886 0.29429913
-0.23225772 -0.41436782 0.33192804
-0.1923189 -0.42925364 0.34727407
-0.2955088 -0.39272696 0.29166895
-0.08197923 -0.47603083 0.3946691
-0.21350352 -0.42591342 0.32857105
-0.15188543 -0.4554588 0.37367776
-0.20203581 -0.43801582 0.34170577
-0.13588612 -0.45620707 0.37100214
-0.34232116 -0.3586862 0.27297166
-0.17475185 -0.4456789 0.36214942
-0.1096559 -0.48124534 0.3859821
-0.18847968 -0.43645436 0.3411162
-0.29488745 -0.39387006 0.29584488
-0.36619878 -0.35934192 0.25653213
-0.33425504 -0.3704719 0.28112948
-0.15040453 -0.46162307 0.3723029
-0.26935536 -0.39867678 0.31391233
-0.34503728 -0.36525774 0.2756753
-0.11387016 -0.4666692 0.38222313
-0.079079464 -0.4721697 0.40532863
-0.23388186 -0.4092017 0.3221105
-0.2414064 -0.40547404 0.3193516
-0.09077172 -0.4856979 0.39350894
-0.17454094 -0.44886857 0.36127147
-0.27510622 -0.40319356 0.3066026
-0.115084276 -0.4656263 0.3845087
-0.18453859 -0.44644666 0.3516752
-0.07745004 -0.4704978 0.40265083
-0.10649037 -0.4813489 0.38556904
-0.12597111 -0.46059003 0.37690604
-0.15530233 -0.45262408 0.35797462
-0.3269719 -0.37857714 0.2788082
-0.25470603 -0.39939398 0.31120524
-0.2540903 -0.40134293 0.31868842
-0.13174914 -0.47090054 0.3752314
-0.070642576 -0.47073588 0.39844093
-0.3266478 -0.37310988 0.27151603
-0.1948377 -0.42776752 0.34213504
-0.089275986 -0.47813463 0.39114815
-0.10364561 -0.47530487 0.38430765
-0.26016727 -0.40157896 0.30471256
-0.36433297 -0.34701562 0.25633627
-0.3199714 -0.3815627 0.28051978
-0.091370136 -0.475377 0.39225823
-0.28919634 -0.39467463 0.2932429
-0.27882144 -0.39635935 0.3093601
-0.36376557 -0.35981074 0.2642586
-0.12860239 -0.46099645 0.37282622
-0.09651056 -0.47974694 0.4013092
-0.26548797 -0.39410096 0.30901414
-0.26425195 -0.4056084 0.3160534
-0.33378997 -0.3666772 0.28078812
-0.07892124 -0.47166657 0.39992386
-0.14137089 -0.45826474 0.36497766
-0.19230908 -0.4312517 0.3505349
-0.10702172 -0.4738046 0.39534605
-0.38585532 -0.3472953 0.25309405
-0.29026368 -0.3874985 0.28943914
-0.10160552 -0.4849478 0.39445534
-0.084035054 -0.47590122 0.4054299
-0.22105093 -0.41939777 0.32473361
-0.14160402 -0.4537363 0.3675438
-0.27527425 -0.39877358 0.29817256
-0.2710202 -0.39290658 0.30084896
-0.29947034 -0.39122587 0.2955351
-0.23362839 -0.42301676 0.32713917
-0.106822 -0.48277548 0.387887
-0.07651396 -0.4827537 0.39808917
-0.12896311 -0.45898926 0.37725437
-0.2830768 -0.39941686 0.30057177
-0.38468903 -0.35064882 0.25116998
-0.3771712 -0.34953848 0.25945857
-0.36605567 -0.35129556 0.264412
-0.31292757 -0.3763026 0.29121184
-0.17684977 -0.43981475 0.347298
-0.27500057 -0.3952548 0.31080735
-0.10644503 -0.47110385 0.38455647
-0.18497919 -0.43375066 0.3446539
-0.14226429 -0.45392525 0.37442094
-0.22052166 -0.4291451 0.33462313
-0.17317246 -0.43797818 0.35391897
-0.18434274 -0.44512737 0.3472142
-0.33567357 -0.3725208 0.2696327
-0.3605904 -0.35699078 0.25430873
-0.2124432 -0.42485797 0.34248707
-0.3309449 -0.36616272 0.2810898
-0.18663593 -0.43337747 0.35277855
-0.20948634 -0.42275953 0.34152016
-0.2133184 -0.41982782 0.330742
-0.32987958 -0.3638434 0.27774584
-0.31528333 -0.38410053 0.28590795
-0.35951328 -0.34938228 0.25826132
-0.19172545 -0.43743786 0.33999902
-0.2607761 -0.3962366 0.30961248
-0.1936946 -0.43759274 0.35241213
-0.2673291 -0.39787295 0.30114126
-0.29721707 -0.38036963 0.2876239
-0.16170508 -0.45481533 0.35732546
-0.28021708 -0.3869234 0.300278
-0.28649592 -0.39204216 0.29182708
-0.13434614 -0.4570025 0.37704992
-0.22786255 -0.42569697 0.32845983
-0.3063284 -0.38831356 0.2908299
-0.3385724 -0.36306745 0.26517972
-0.30397666 -0.3855955 0.28390804
-0.23590207 -0.4103995 0.3180025
-0.19035584 -0.43023354 0.34343237
-0.10395345 -0.47914428 0.38450363
-0.26789343 -0.3928686 0.30712357
-0.10238455 -0.47231513 0.39391893
-0.077721044 -0.47852656 0.39520067
-0.17031506 -0.43935996 0.356778
-0.36228356 -0.3614041 0.2590314
-0.2365671 -0.41605136 0.31723642
-0.26686162 -0.40351745 0.30288944
-0.29392633 -0.3818765 0.28935865
-0.16338398 -0.45192087 0.3548597
-0.371674 -0.34745428 0.24835145
-0.13197868 -0.46251714 0.36977974
-0.21970078 -0.42574292 0.33910137
-0.123056754 -0.4660771 0.3744548
-0.14058807 -0.45781434 0.37831205
-0.31226763 -0.372023 0.28190303
-0.14848588 -0.4512526 0.37169817
-0.12225394 -0.4637528 0.3763401
-0.34260854 -0.35842386 0.26495054
-0.22933888 -0.4112903 0.32496458
-0.104316875 -0.4811915 0.3972407
-0.0879637 -0.47383583 0.39777255
-0.16876274 -0.44240245 0.36242145
-0.13617668 -0.46896303 0.37342998
-0.12578908 -0.47377786 0.38402572
-0.11849995 -0.47775733 0.3862216
-0.14526978 -0.4623695 0.36540258
-0.1558206 -0.45981026 0.36805
-0.18188453 -0.43540883 0.34602204
-0.22237824 -0.4231047 0.3379904
-0.37995842 -0.34940752 0.25778863
-0.33079687 -0.37508267 0.28145915
-0.2815444 -0.38702154 0.29668593
-0.16570193 -0.44912326 0.3529716
-0.09949012 -0.47568858 0.39855915
-0.22318846 -0.41702062 0.3353225
-0.15211754 -0.46167696 0.36967698
-0.30169067 -0.3795974 0.2954563
-0.15268531 -0.4517857 0.35945946
-0.33206278 -0.36264017 0.27621597
-0.1598434 -0.44857177 0.3684984
-0.27379975 -0.391136 0.29992893
-0.13524352 -0.46725762 0.38139594
-0.21461219 -0.42093322 0.3285827
-0.32826737 -0.37189168 0.28421012
-0.19246845 -0.4326318 0.33931798
-0.111827314 -0.48108938 0.38847563
-0.20284101 -0.42382503 0.3390389
-0.26735893 -0.39501897 0.31194884
-0.19533981 -0.42835623 0.34705606
-0.11832932 -0.4750514 0.37892988
-0.12561013 -0.4648641 0.37315828
-0.25497967 -0.4035261 0.3203864
-0.2172381 -0.4211997 0.32667172
-0.18805738 -0.43286777 0.34245858
-0.19426364 -0.4345152 0.3382359
-0.2454231 -0.40759894 0.31240863
-0.27624387 -0.3920087 0.29706886
-0.31339267 -0.3737036 0.27856562
-0.15637797 -0.45948595 0.3635519
-0.24184708 -0.41133496 0.31405747
-0.24895823 -0.40422392 0.32174456
-0.34041768 -0.36763525 0.27798113
-0.27866644 -0.38898695 0.29727444
-0.14364833 -0.45454934 0.36469203
-0.22942951 -0.41294155 0.33098337
-0.16116217 -0.4437176 0.3598746
-0.31559825 -0.3719647 0.28735328
-0.310902 -0.3862391 0.28774598
-0.34020844 -0.3604436 0.27513605
-0.31062606 -0.38218084 0.28038296
-0.29456526 -0.39227408 0.2999128
-0.08266629 -0.472691 0.40148145
-0.32810503 -0.36547303 0.28020972
-0.13946775 -0.4670394 0.3708347
-0.29215255 -0.39347893 0.2920593
-0.322852 -0.374611 0.28696704
-0.16411653 -0.44296417 0.35623252
-0.224802 -0.41740754 0.322874
-0.11612837 -0.4705013 0.3912827
-0.28379282 -0.3895069 0.29290017
-0.23271754 -0.40986314 0.32638538
-0.18057038 -0.4480129 0.35551605
-0.26339042 -0.39595643 0.3053613
-0.26641962 -0.40681177 0.3070281
-0.17402501 -0.4506709 0.35353327
-0.19817916 -0.43906268 0.34100607
-0.2166998 -0.43073457 0.33734056
-0.3224816 -0.38020766 0.28398898
-0.38949805 -0.34630078 0.24848986
-0.16611677 -0.4549523 0.36272702
-0.11101511 -0.47560441 0.38086265
-0.31663358 -0.38341877 0.28341714
-0.18734793 -0.43936777 0.34216967
-0.14306116 -0.45251578 0.37175423
-0.35170248 -0.36626995 0.26395002
-0.36437064 -0.35478845 0.26589763
-0.0688383 -0.47452483 0.39803705
-0.24363092 -0.41478968 0.32686433
-0.20501974 -0.4318087 0.34674963
-0.3368568 -0.3665261 0.27966142
-0.3579107 -0.3623444 0.25896716
-0.3707235 -0.35640866 0.25271407
-0.15149623 -0.44924343 0.36931136
-0.07614283 -0.47591326 0.39597696
-0.23590806 -0.4205897 0.32925975
-0.07372922 -0.47275388 0.39750803
-0.09564765 -0.48382252 0.3896202
-0.14032026 -0.46176758 0.36603212
-0.21113366 -0.42824018 0.34368184
-0.18199778 -0.44317976 0.34549022
-0.12216729 -0.46851963 0.38851163
-0.19852269 -0.429554 0.34850964
-0.28088427 -0.3909022 0.30706823
-0.13030636 -0.4696663 0.37315857
-0.31530422 -0.38283992 0.28088897
-0.25675863 -0.4109018 0.3184149
-0.30149466 -0.38589627 0.29779017
-0.32415184 -0.36879468 0.27298418
-0.29152787 -0.39121848 0.30272382
-0.3547632 -0.35226178 0.26582044
-0.21025443 -0.4256727 0.33004045
-0.34544566 -0.36228535 0.26151
-0.19542222 -0.43699297 0.33880466
-0.26407468 -0.40511504 0.30447596
-0.29490414 -0.3799285 0.29269114
-0.2767905 -0.39595348 0.29651853
-0.2329418 -0.4202886 0.3206041
-0.29636034 -0.3794635 0.2902761
-0.19797653 -0.42707804 0.34568456
-0.3239198 -0.36838868 0.2835801
-0.347585 -0.36618337 0.27362102
-0.06690918 -0.46943864 0.3988597
-0.17394206 -0.43960348 0.34961408
-0.2810348 -0.38776687 0.3039082
-0.37393922 -0.35493442 0.25913107
-0.30247918 -0.3893654 0.28802317
-0.1590323 -0.4578741 0.36731622
-0.121087566 -0.47386712 0.37765425
-0.2721785 -0.39693886 0.3123509
-0.17540415 -0.45073742 0.3567513
-0.18914844 -0.44368583 0.35169423
-0.36024764 -0.3627106 0.26178038
-0.17556539 -0.44754273 0.349649
-0.36505303 -0.34834543 0.2528927
-0.18451007 -0.43663657 0.3558679
-0.12632787 -0.47025618 0.37407964
-0.33277035 -0.36502844 0.26842016
-0.37392402 -0.34341812 0.25661287
-0.37200856 -0.3496717 0.2617885
-0.29749703 -0.379197 0.2939987
-0.34662348 -0.36886007 0.26697075
-0.12787724 -0.47322166 0.37846276
-0.28387165 -0.3853091 0.29736334
-0.34415057 -0.37013152 0.26847005
-0.37558895 -0.34686983 0.24602416
-0.2597145 -0.40784135 0.3073116
-0.34349528 -0.3623414 0.27595776
-0.29778013 -0.39244443 0.2933433
-0.17795387 -0.44893837 0.35754725
-0.3257954 -0.36696255 0.2819621
-0.27700046 -0.39845484 0.31002763
-0.25277036 -0.4022968 0.30948213
-0.25908646 -0.41080457 0.31486276
-0.24569707 -0.40568724 0.32331318
-0.19181368 -0.44051448 0.35257897
-0.16269171 -0.44348395 0.36261827
-0.22569907 -0.41370526 0.32483
-0.28091866 -0.39712232 0.29595736
-0.28737113 -0.38652104 0.29152885
-0.28757408 -0.38412818 0.29367292
-0.16716053 -0.45260897 0.36488846
-0.093123466 -0.4768614 0.40167022
-0.12148021 -0.47643095 0.38402784
-0.35605583 -0.35104132 0.2635942
-0.08980401 -0.47462124 0.4005615
-0.15908311 -0.44650984 0.36677477
-0.29722524 -0.39150986 0.2980123
-0.24103999 -0.41864043 0.3260927
-0.09818816 -0.47379336 0.3963502
-0.16796027 -0.4498041 0.36547947
-0.23576006 -0.40829095 0.32434356
-0.14831483 -0.4612096 0.36413544
-0.17019437 -0.4404002 0.3599168
-0.3071296 -0.37599406 0.2916449
-0.2433182 -0.4050065 0.31656772
-0.17955215 -0.4374753 0.35714996
-0.0853461 -0.4805012 0.40565687
-0.38803843 -0.34514895 0.25077546
-0.2697588 -0.39626744 0.30000466
-0.15393206 -0.45871323 0.37171197
-0.17040274 -0.45210797 0.3547961
-0.10273008 -0.47456297 0.3968382
-0.09846303 -0.48570022 0.39262247
-0.24427766 -0.4178636 0.32233417
-0.15924029 -0.4514541 0.356024
-0.17709069 -0.44040403 0.35977545
-0.20206591 -0.427185 0.33479246
-0.35496294 -0.35717565 0.25664264
-0.26539022 -0.3941762 0.30626616
-0.21229777 -0.4228595 0.32932645
-0.17933635 -0.43502635 0.35090968
-0.20025223 -0.4252283 0.33910167
-0.37392223 -0.34317887 0.24947573
-0.17252387 -0.45189926 0.35947958
-0.24530151 -0.4126093 0.31311366
-0.35563812 -0.36487415 0.26548043
-0.12287389 -0.46473616 0.38616446
-0.2166325 -0.43047467 0.3321637
-0.22478119 -0.4230507 0.33658218
-0.37997422 -0.35130665 0.2462465
-0.1726819 -0.4426199 0.34923667
-0.3256876 -0.3706987 0.28495288
-0.38320714 -0.3503997 0.2438548
-0.27345473 -0.3923303 0.30909723
-0.23771316 -0.4096988 0.32756463
-0.2583654 -0.398242 0.30804744
-0.118703514 -0.4644269 0.38491896
-0.1672589 -0.44572845 0.3651544
-0.34179565 -0.37033844 0.27533582
-0.28002477 -0.3915966 0.2947487
-0.2570238 -0.40819588 0.30787745
-0.26258287 -0.40789717 0.3075636
-0.3110076 -0.37233728 0.28526393
-0.23575224 -0.41848853 0.31876877
-0.12580636 -0.4694862 0.38695318
-0.25414658 -0.40987128 0.32149172
-0.31214896 -0.38482198 0.2832773
-0.12177406 -0.469263 0.3750322
-0.28893322 -0.39147374 0.29078472
-0.3366214 -0.36074713 0.2746245
-0.26344198 -0.40262297 0.3170931
-0.35285804 -0.36537576 0.2693784
-0.20848176 -0.43290442 0.33394307
-0.10901214 -0.4690007 0.38972974
-0.34045604 -0.36642665 0.26447478
-0.3335757 -0.3615557 0.27355248
-0.3017097 -0.3875193 0.28569445
-0.1176229 -0.46789837 0.3894459
-0.23918208 -0.40749216 0.31763825
-0.23267716 -0.42026365 0.33229068
-0.08387105 -0.4734872 0.39765233
-0.16799353 -0.44076535 0.35504186
-0.29332888 -0.38848582 0.28826126
-0.30656913 -0.38362202 0.2821433
-0.36968732 -0.35104433 0.2630535
-0.31946534 -0.36978295 0.2763246
-0.2481398 -0.4158647 0.31720302
-0.12004672 -0.4711629 0.38986933
-0.17114219 -0.4405281 0.3514695
-0.3413409 -0.37178788 0.2719695
-0.19677068 -0.43309504 0.3369485
-0.15598914 -0.45552406 0.358661
-0.28680962 -0.3969157 0.2962011
-0.3806656 -0.35278267 0.25004965
-0.07441002 -0.4793585 0.3967501
-0.17000863 -0.44349656 0.35067803
-0.08878502 -0.48157465 0.39111513
-0.14776467 -0.4570047 0.36185586
-0.10388239 -0.47167772 0.38673842
-0.30690157 -0.37439042 0.28810254
-0.09006873 -0.4773211 0.40333873
-0.15477873 -0.45334515 0.37208173
-0.115822405 -0.46638685 0.3876418
-0.122393996 -0.46221778 0.37927753
-0.18458635 -0.43258637 0.3478063
-0.13747412 -0.46769845 0.3789552
-0.21269467 -0.43111098 0.33206195
-0.2166088 -0.41809037 0.3293203
-0.11087027 -0.46889094 0.38242644
-0.33124506 -0.36867607 0.28233746
-0.27779087 -0.40050083 0.30816418
-0.24869575 -0.4056275 0.31083593
-0.15191998 -0.44868234 0.36262006
-0.16896431 -0.45052397 0.35284185
-0.10647248 -0.4696782 0.3882503
-0.28162962 -0.3891331 0.29451105
-0.2686167 -0.40431795 0.31339332
-0.15833907 -0.4540703 0.35726506
-0.083747 -0.48570025 0.40037695
-0.32036495 -0.3725475 0.27424526
-0.3394492 -0.35884663 0.2712556
-0.13402444 -0.45660198 0.3739379
-0.23714384 -0.42129833 0.3256782
-0.13914259 -0.4624245 0.38020325
-0.17207265 -0.44863933 0.36322314
-0.11219399 -0.47916216 0.3924141
-0.18236586 -0.4387311 0.34417632
-0.36209872 -0.34803247 0.25955552
-0.2321995 -0.41714248 0.33292243
-0.36025485 -0.36059684 0.26693982
-0.13401496 -0.4649905 0.369304
-0.17867616 -0.43653727 0.3480881
-0.28593326 -0.39142033 0.30564886
-0.14673698 -0.45324948 0.37393996
-0.32714048 -0.36670917 0.27184182
-0.24568233 -0.41713655 0.31884986
-0.3099315 -0.3787277 0.27949867
-0.30604967 -0.3804325 0.28145912
-0.2836483 -0.38565245 0.3006619
-0.21654373 -0.41762573 0.33474684
-0.34174094 -0.3692191 0.26611692
-0.22451371 -0.42679316 0.32835194
-0.13944417 -0.4648582 0.36808458
-0.3288914 -0.3640182 0.27366
-0.41287512 -0.32381323 0.2103164
-0.45825747 -0.302623 -0.1060287
-0.47926363 -0.29302746 -0.03394445
-0.3464231 -0.3643398 -0.27191892
-0.29401106 -0.38136065 -0.29502827
-0.4715249 -0.29872203 0.100124374
-0.4357739 -0.3152896 -0.17184503
-0.484307 -0.29569417 0.04270366
-0.2555588 -0.40845913 -0.31153244
-0.4597606 -0.3094516 -0.13417423
-0.45231044 -0.30516878 -0.13316625
-0.4367681 -0.32625985 -0.17007457
-0.29605964 -0.3830196 -0.29702544
-0.4221994 -0.33313793 -0.19132556
-0.4357379 -0.31996882 0.18969947
-0.3774258 -0.35456184 -0.24303943
-0.2622782 -0.39562035 -0.30495238
-0.35130674 -0.3542642 -0.25445357
-0.41816777 -0.33241576 -0.20353577
-0.44121218 -0.31066275 -0.14704572
-0.23174259 -0.41924584 -0.30401966
-0.42944002 -0.31616175 -0.17630273
-0.41831926 -0.32426313 0.2121456
-0.4315018 -0.32876104 -0.17992716
-0.422869 -0.32580894 -0.19794044
-0.475876 -0.29784775 0.012663953
-0.23601055 -0.4145708 -0.30271658
-0.44599742 -0.3124867 -0.15651767
-0.39735287 -0.33224982 0.23275644
-0.37718365 -0.3540196 -0.24587005
-0.3071014 -0.38572586 -0.28250325
-0.47612476 -0.29420102 0.026038803
-0.4103144 -0.33811834 -0.20217219
-0.19688305 -0.44021434 -0.311146
-0.22536504 -0.4139921 -0.31382808
-0.4250476 -0.32359728 -0.19463971
-0.45893204 -0.31514877 0.14476256
-0.40013963 -0.34309506 -0.214609
-0.385675 -0.3433704 -0.22326598
-0.26578838 -0.39467114 -0.30015025
-0.4601454 -0.30402386 0.13638446
-0.457012 -0.3154088 0.13252002
-0.47032952 -0.30508476 -0.06405782
-0.4695472 -0.30013707 0.10809562
-0.47998875 -0.30435982 -0.008740388
-0.478923 -0.30099833 -0.07416412
-0.36257026 -0.34787527 -0.25137487
-0.33710808 -0.37115297 -0.26642358
-0.40623635 -0.32722977 -0.20803377
-0.2745598 -0.38970757 -0.30072045
-0.19310898 -0.4341451 -0.30686375
-0.46353728 -0.29978162 -0.09120521
-0.45771903 -0.31627324 -0.13131477
-0.24711585 -0.4029562 -0.30485386
-0.21683204 -0.43095654 -0.31399804
-0.27000487 -0.4056936 -0.302893
-0.40896332 -0.32780516 -0.1963265
-0.33354658 -0.3628133 -0.2677469
-0.23750615 -0.41225314 -0.3025712
-0.40248176 -0.3358043 0.21557346
-0.25394166 -0.4063143 -0.31220436
-0.40248153 -0.3425451 -0.2171948
-0.4522714 -0.31582576 -0.14819174
-0.4732783 -0.30223146 0.044555128
-0.45191538 -0.30587196 -0.1258767
-0.4775951 -0.3055989 0.04689692
-0.24041414 -0.40629196 -0.3098878
-0.4724589 -0.29978806 0.045927025
-0.48432928 -0.30195105 -0.03652052
-0.18961772 -0.4301862 -0.31211522
-0.40399587 -0.34192297 -0.21446906
-0.43552905 -0.32348973 0.16999246
-0.48238343 -0.2919939 -0.007954493
-0.2334307 -0.41653904 -0.30323374
-0.20058593 -0.42530555 -0.3157449
-0.3958757 -0.33465707 -0.22596425
-0.4793003 -0.3059678 0.07344131
-0.3922096 -0.340338 0.24540098
-0.39836347 -0.33069125 -0.21401817
-0.38129586 -0.35249403 -0.23764822
-0.45420632 -0.3169759 -0.12947744
-0.45593894 -0.3141495 0.12886585
-0.32514656 -0.36606887 -0.28015387
-0.36653617 -0.34702265 -0.25139427
-0.38260868 -0.33939117 -0.2386688
-0.48520863 -0.30296803 0.0240433
-0.40027088 -0.34034148 -0.22490735
-0.38311988 -0.34180403 0.23741573
-0.48022997 -0.2918919 0.02029457
-0.3081121 -0.37564766 -0.29022524
-0.48046815 -0.3025485 -0.06880678
-0.4311201 -0.31531203 0.1844189
-0.41802856 -0.33040887 -0.18678193
-0.2672291 -0.39521086 -0.3076267
-0.16041407 -0.4445935 -0.31366608
-0.47228742 -0.30474788 0.06512006
-0.31388617 -0.37108248 -0.28408775
-0.47398362 -0.30635092 0.1018168
-0.48407525 -0.29956594 -0.04479812
-0.3807602 -0.34178707 -0.22917956
-0.46620333 -0.31215268 -0.10748096
-0.40135595 -0.34215266 -0.21203074
-0.46752828 -0.30583426 0.084920794
-0.3367412 -0.36712873 -0.27899724
-0.36847228 -0.35508704 -0.24160005
-0.4285645 -0.32974717 -0.17958398
-0.31918108 -0.38057065 -0.2867636
-0.21825391 -0.42456406 -0.31867468
-0.3037415 -0.38947743 -0.29103458
-0.42721522 -0.3177216 0.19418223
-0.48370427 -0.3039339 -0.014094017
-0.2568677 -0.40258121 -0.31105903
-0.47947973 -0.29867315 0.08288314
-0.39163178 -0.33483362 -0.22749501
-0.4620477 -0.3035741 0.09918181
-0.3343469 -0.37132642 -0.2808301
-0.2624661 -0.40913224 -0.30320144
-0.44398862 -0.31123242 0.16819987
-0.46233845 -0.310369 -0.094278805
-0.42406443 -0.3261286 -0.17594382
-0.4135157 -0.33712655 -0.20034462
-0.37370557 -0.3433882 -0.24560821
-0.24540046 -0.41678518 -0.31049916
-0.34158906 -0.36946568 -0.27461636
-0.38448998 -0.33882976 0.23726529
-0.45009857 -0.30698657 -0.12867872
-0.45251897 -0.30771494 -0.11926706
-0.47550544 -0.30476803 0.0976694
-0.48761004 -0.30088723 0.0020586625
-0.46684414 -0.31136194 0.12045799
-0.2833593 -0.38637555 -0.29966432
-0.42875448 -0.32908982 0.20070761
-0.45534605 -0.30625698 -0.13613391
-0.48475724 -0.30339363 0.019174986
-0.46203476 -0.30980816 0.14129144
-0.17028639 -0.44089225 -0.30779365
-0.42780203 -0.32460952 0.18072799
-0.47451127 -0.2945783 -0.038457304
-0.19377396 -0.4412141 -0.3158918
-0.18708348 -0.4372479 -0.3064683
-0.4818461 -0.3038508 0.009612247
-0.30409408 -0.3793751 -0.293571
-0.46652398 -0.30624598 0.08804974
-0.480985 -0.30507952 0.03743512
-0.47752094 -0.30632737 -0.050550982
-0.48511147 -0.29732147 -0.03083828
-0.462726 -0.30120417 -0.110091254
-0.44210994 -0.32207856 0.17750955
-0.47440284 -0.30800056 0.082355835
-0.47610843 -0.30576408 -0.0432185
-0.37152857 -0.35448492 -0.24015027
-0.40891257 -0.3268776 0.2095373
-0.47277117 -0.2964511 0.05116535
-0.4600731 -0.30351466 -0.12386937
-0.47103903 -0.2983044 0.06211
-0.3165538 -0.37270528 -0.28749007
-0.29690924 -0.38906133 -0.29785404
-0.44129318 -0.32411945 -0.15968977
-0.18129104 -0.4446338 -0.3068184
-0.46722734 -0.3049081 -0.11161484
-0.17332828 -0.45163852 -0.31282216
-0.20654422 -0.42240432 -0.31596515
-0.34175566 -0.37123957 -0.27177796
-0.481325 -0.29703224 -0.062427193
-0.44077468 -0.32437262 0.17407775
-0.46841812 -0.30590302 -0.109080456
-0.4263474 -0.31928802 -0.17118321
-0.23432493 -0.42200893 -0.3070605
-0.26760295 -0.40690804 -0.30383605
-0.46448404 -0.31300098 0.11791788
-0.4406657 -0.31548983 -0.14356786
-0.46717888 -0.31150144 -0.094285026
-0.38287783 -0.341972 -0.2262406
-0.38533807 -0.35045975 -0.23879866
-0.47973013 -0.30565313 -0.037029214
-0.4195034 -0.32066575 0.20278367
-0.44125327 -0.32355845 -0.15532014
-0.28358603 -0.39254826 -0.29044938
-0.43997365 -0.31867093 -0.14654262
-0.4144579 -0.32515508 -0.20316088
-0.45366377 -0.31537944 -0.12570913
-0.44297624 -0.31275538 0.17215171
-0.41655204 -0.3315519 -0.20591088
-0.35739884 -0.355523 -0.2626847
-0.22755057 -0.42016822 -0.3044644
-0.4050392 -0.3318704 -0.2001452
-0.44043273 -0.32302994 0.18031332
-0.3849461 -0.34869018 -0.24198292
-0.42039135 -0.32200003 0.2077704
-0.47463396 -0.30504444 0.05301743
-0.47395667 -0.29941314 0.031569824
-0.45037985 -0.3110632 0.16141868
-0.44312084 -0.30964768 -0.14387909
-0.41446045 -0.32554644 -0.18966475
-0.44282052 -0.31811738 -0.14202577
-0.4738028 -0.30867976 -0.07811706
-0.2513689 -0.4083783 -0.3000369
-0.20639095 -0.42577487 -0.3083324
-0.23647141 -0.4087699 -0.30528957
-0.45151234 -0.31186903 -0.14852566
-0.4501316 -0.31802428 0.16333169
-0.41166228 -0.33593684 -0.19729528
-0.40806767 -0.32689196 -0.19905606
-0.2677384 -0.40225035 -0.2975235
-0.42024684 -0.33387738 0.209776
-0.27633846 -0.39370608 -0.30650645
-0.16258028 -0.45413518 -0.30608934
-0.46953902 -0.31008855 -0.1000423
-0.45972723 -0.30362442 0.10758364
-0.30823046 -0.38723725 -0.2854488
-0.43578756 -0.3139596 0.16681089
-0.4379675 -0.3247996 0.17159452
-0.26900375 -0.4019389 -0.30911797
-0.38032138 -0.339926 -0.23216712
-0.45387125 -0.30571255 0.12787844
-0.43419397 -0.32690036 -0.16831696
-0.15847045 -0.45596552 -0.30575708
-0.43614218 -0.3253708 -0.17620173
-0.38171718 -0.3449417 -0.22783038
-0.48676422 -0.30114684 -0.007994182
-0.40653855 -0.33980048 0.22719608
-0.4627767 -0.30710602 0.09862624
-0.39028063 -0.3480105 0.23848215
-0.4775862 -0.30307925 0.09125962
-0.4728496 -0.3030304 0.051567562
-0.3803038 -0.3395247 0.2446638
-0.4743261 -0.30728516 -0.08629264
-0.16014801 -0.455783 -0.3155656
-0.47100714 -0.30051744 0.060011975
-0.3919888 -0.33902982 -0.2154648
-0.32539558 -0.36715844 -0.27330917
-0.4752897 -0.30668455 -0.0601739
-0.19431745 -0.43686548 -0.30701536
-0.30813748 -0.38697648 -0.29006606
-0.4761048 -0.30284232 -0.014502138
-0.4327054 -0.31739146 0.19024841
-0.45738277 -0.30832586 0.11470362
-0.38437074 -0.34879848 0.24058329
-0.48502496 -0.29962867 0.046214104
-0.47343946 -0.2949796 -0.056690015
-0.46882 -0.29864258 -0.09149648
-0.44209993 -0.3112638 -0.15744223
-0.39366576 -0.3445954 -0.23205984
-0.4634871 -0.30602032 -0.083432406
-0.46978146 -0.30735162 -0.071014464
-0.41618812 -0.32710502 -0.18698913
-0.41538775 -0.33025634 0.21904834
-0.47687757 -0.30680877 0.070586786
-0.3789097 -0.34819007 -0.23211803
-0.42776322 -0.31732896 0.18254459
-0.47788137 -0.29428205 -0.058173113
-0.439041 -0.32507902 -0.16227922
-0.20364049 -0.435736 -0.31750232
-0.48283994 -0.29171765 0.016393706
-0.34180027 -0.370938 -0.2663655
-0.42105427 -0.32090443 -0.18242717
-0.33968145 -0.36260512 -0.2613987
-0.45561776 -0.30372062 0.13828191
-0.46779627 -0.3105685 0.0992218
-0.3919822 -0.33625898 0.24168682
-0.45738536 -0.3163857 0.14087233
-0.21398413 -0.42111233 -0.31775397
-0.23081432 -0.41271493 -0.31439003
-0.40672618 -0.3387129 -0.2038003
-0.19576874 -0.43915978 -0.3086841
-0.43677142 -0.32548156 0.1742446
-0.4116438 -0.32659435 0.21860725
-0.43628007 -0.31345627 -0.16635838
-0.38372007 -0.33804563 0.24033168
-0.43747616 -0.32554397 0.18303724
-0.4301746 -0.3208589 -0.16311722
-0.35461032 -0.35862994 -0.25028795
-0.31191963 -0.38033032 -0.29148978
-0.41124615 -0.32906142 0.2218756
-0.18522348 -0.43984294 -0.3187595
-0.32874507 -0.37313637 -0.28392616
-0.4615381 -0.31305805 0.14038816
-0.4866032 -0.29590935 -0.012843765
-0.4133403 -0.3241942 -0.19336466
-0.44845837 -0.31904346 -0.15407984
-0.26841614 -0.3926754 -0.30168015
-0.45065033 -0.30788773 -0.14358996
-0.31762314 -0.38096258 -0.27806923
-0.23699827 -0.42044145 -0.30601165
-0.22996724 -0.42252693 -0.30582374
-0.42940316 -0.32195735 0.20028338
-0.28239328 -0.39831427 -0.3028172
-0.48200375 -0.30306557 -0.061259553
-0.29980406 -0.38754404 -0.28439736
-0.4470538 -0.30771413 -0.14333329
-0.45255175 -0.30484554 0.14216954
-0.292726 -0.39480653 -0.29531747
-0.39130765 -0.34440273 0.24693462
-0.43333933 -0.3143604 0.17352577
-0.28403917 -0.39274287 -0.30380398
-0.4650886 -0.31215858 -0.09847069
-0.44296774 -0.31448102 0.15145594
-0.43841642 -0.31833845 -0.17304109
-0.33119422 -0.3650186 -0.26848987
-0.24021582 -0.41040424 -0.31404614
-0.4751931 -0.3080044 -0.07318178
-0.44466114 -0.3086368 0.15592915
-0.34491807 -0.35912836 -0.2702319
-0.29204637 -0.38991752 -0.28712064
-0.46903557 -0.30504128 -0.06726731
-0.47963732 -0.29231206 -0.016401596
-0.45761654 -0.3131159 -0.11144964
-0.48212498 -0.2923439 -0.014233351
-0.47948217 -0.2952033 0.07070659
-0.44552648 -0.3140709 -0.13489248
-0.47311348 -0.29746124 -0.030062929
-0.25571302 -0.39976162 -0.3016059
-0.32528076 -0.37010095 -0.2719476
-0.3973639 -0.333472 -0.22351545
-0.44821492 -0.3207377 -0.14565413
-0.4252551 -0.3179334 -0.17911877
-0.4745549 -0.30191082 0.03356556
-0.46201554 -0.31405896 0.12352776
-0.39100993 -0.34468937 -0.23583102
-0.43247542 -0.31462938 -0.17016481
-0.46996117 -0.2988766 0.07241401
-0.46625328 -0.30988234 0.12685025
-0.24264582 -0.40748817 -0.31254855
-0.46064052 -0.30129516 -0.099169195
-0.44862932 -0.3204397 0.1557115
-0.28246942 -0.3996348 -0.30026525
-0.35139525 -0.35313088 -0.25730824
-0.45351362 -0.31797025 -0.13382246
-0.4790038 -0.30385697 -0.0056565553
-0.44005966 -0.31759223 0.18162829
-0.26249567 -0.40365914 -0.3106003
-0.27886498 -0.39831954 -0.2942285
-0.479787 -0.2919511 -0.00050587207
-0.4313457 -0.3221288 0.17356639
-0.4730839 -0.29997364 -0.08834807
-0.38926584 -0.34662822 -0.23726721
-0.46040326 -0.30421478 -0.092762664
-0.4303878 -0.3154471 0.18164518
-0.42828405 -0.3190844 -0.18621114
-0.4394279 -0.3186296 0.1592421
-0.36475125 -0.34685743 -0.24653411
-0.44503012 -0.31592354 0.14905292
-0.45143718 -0.31304324 -0.12511614
-0.45551732 -0.30501765 0.1223618
-0.44328868 -0.32219946 0.1743134
-0.4453988 -0.32045415 -0.14365545
-0.3217507 -0.37632576 -0.2870575
-0.1980517 -0.42919514 -0.31863034
-0.47712117 -0.29357696 0.018688373
-0.4758259 -0.29472822 0.023329973
-0.296025 -0.38793978 -0.28533354
-0.18180028 -0.437797 -0.3180674
-0.3741895 -0.34930435 -0.23551968
-0.47392753 -0.29628128 0.08736934
-0.47527835 -0.30642426 -0.056171373
-0.42735362 -0.3169703 0.18617025
-0.48217058 -0.29290995 0.034668386
-0.39985883 -0.335785 0.21820182
-0.46965978 -0.30392158 -0.10366724
-0.4728039 -0.29557508 0.061431564
-0.47055864 -0.30265945 -0.059021555
-0.4068073 -0.33314252 0.22843674
-0.43044168 -0.31679448 -0.16444355
-0.168417 -0.4510471 -0.31663457
-0.39759085 -0.33989012 0.23983864
-0.3472218 -0.358375 -0.25586194
-0.48458087 -0.29325902 -0.012244858
-0.47786784 -0.2930146 0.014827222
-0.4617529 -0.31438455 -0.12001893
-0.44046277 -0.31546336 0.17893963
-0.43948662 -0.3235278 -0.170392
-0.37368286 -0.3563723 -0.24563529
-0.48813638 -0.29788348 -0.0016392693
-0.387956 -0.33800843 0.24608076
-0.20565799 -0.4292349 -0.32006875
-0.20433334 -0.42521295 -0.3183436
-0.44518822 -0.30935225 0.1624006
-0.4650455 -0.30940738 -0.120639935
-0.48089296 -0.29486984 -0.050424106
-0.42844465 -0.3270302 -0.17174838
-0.3967727 -0.3337435 0.23583156
-0.45340043 -0.31802025 -0.14176787
-0.41997346 -0.3213959 0.19562465
-0.46010777 -0.30176422 -0.11405616
-0.4733796 -0.2953303 0.055395752
-0.4839668 -0.30158 0.05373308
-0.3807383 -0.3448596 -0.24527848
-0.29577136 -0.38468102 -0.2849
-0.42074057 -0.32228363 0.19251756
-0.47434187 -0.29492775 -0.033914782
-0.47347635 -0.29729307 0.038143188
-0.47100914 -0.3039023 0.06938441
-0.4158623 -0.33624437 0.21176262
-0.4772286 -0.2938472 -0.05186785
-0.45343322 -0.31412625 0.13358912
-0.471358 -0.29942492 0.05617553
-0.3512445 -0.36448303 -0.2675439
-0.4003659 -0.33087602 -0.21766548
-0.37562448 -0.34594527 -0.2483261
-0.4707874 -0.29643244 -0.07645224
-0.26304084 -0.40888947 -0.30598408
-0.46128166 -0.30102548 0.10857066
-0.26925766 -0.3995372 -0.29671362
-0.43991247 -0.31762362 -0.17026451
-0.45551676 -0.30412182 -0.1140709
-0.47566283 -0.30515078 -0.084537305
-0.43254012 -0.32382974 -0.18503557
-0.4657739 -0.30424353 -0.114241615
-0.4864919 -0.29332465 0.013945527
-0.46850422 -0.2972945 0.09182457
-0.27375233 -0.39572847 -0.30795473
-0.48739833 -0.3008781 0.0153338015
-0.4011867 -0.3294388 -0.2125701
-0.4441972 -0.31926692 -0.16339941
-0.23190416 -0.41040072 -0.3071992
-0.4399885 -0.31399637 -0.16550474
-0.47414303 -0.29656434 -0.020312339
-0.4783201 -0.29325297 -0.038342543
-0.3038754 -0.38410726 -0.281827
-0.37630785 -0.34149754 -0.23728296
-0.36721057 -0.35436136 -0.25625166
-0.43312684 -0.31951788 0.1929124
-0.47320288 -0.29563364 -0.04329396
-0.46336842 -0.29969552 -0.09554674
-0.40604377 -0.3409368 -0.21216491
-0.46808213 -0.2990257 0.08190552
-0.37745675 -0.34273928 -0.23340753
-0.3940127 -0.33302742 -0.22231776
-0.44413337 -0.3098833 -0.13965708
-0.47410905 -0.30043027 0.09888984
-0.40744263 -0.33533978 -0.21666993
-0.43260115 -0.31721961 -0.17859843
-0.47308588 -0.30230996 -0.03523428
-0.21671884 -0.430806 -0.31121072
-0.47755876 -0.30212897 0.013278097
-0.42577535 -0.31798294 -0.18348017
-0.339881 -0.35896936 -0.2644708
-0.45470577 -0.31018624 -0.1126786
-0.4581808 -0.3023133 -0.10944646
-0.46046257 -0.3010864 -0.10470624
-0.3863552 -0.33736518 -0.23373818
-0.21279833 -0.4316091 -0.30997092
-0.20431793 -0.43412626 -0.3085102
-0.43619686 -0.32624614 -0.17356634
-0.26012364 -0.40447518 -0.29849097
-0.45698607 -0.31641555 -0.13474967
-0.47217205 -0.30003157 0.048757635
-0.31266168 -0.37556648 -0.27766386
-0.39000273 -0.33728376 -0.21836963
-0.4366888 -0.31305248 -0.15460582
-0.47601077 -0.29907298 0.092032626
-0.41624486 -0.32281315 0.2096886
-0.4577901 -0.3082898 -0.13631749
-0.4388988 -0.31215638 -0.16123973
-0.45890427 -0.30283844 0.13285512
-0.4161277 -0.3319391 -0.18964268
-0.4835558 -0.30038646 0.060476482
-0.41184935 -0.3364333 -0.21021353
-0.2255104 -0.42536515 -0.31537098
-0.4750188 -0.30471635 -0.036873266
-0.36223894 -0.36094594 -0.2501944
-0.45168996 -0.3064447 0.13563101
-0.41640383 -0.33425328 -0.19274642
-0.468484 -0.31103322 0.103617884
-0.24848412 -0.41582996 -0.30602324
-0.24804765 -0.41192642 -0.3129364
-0.45309615 -0.31725597 0.14317074
-0.30788714 -0.38438904 -0.2928063
-0.47445995 -0.29518825 0.08109588
-0.47632706 -0.3006525 -8.413941e-05
-0.42488876 -0.33197406 0.20166326
-0.47501302 -0.2943874 0.07120458
-0.4775966 -0.3058468 0.08762141
-0.2883171 -0.39643085 -0.2988144
-0.40297735 -0.34216645 0.22949189
-0.47680843 -0.3053765 -0.034909368
-0.45838875 -0.3153649 -0.12092462
-0.24480836 -0.40551648 -0.3112742
-0.41906592 -0.32358614 -0.19866034
-0.33703664 -0.36027288 -0.27164418
-0.48090523 -0.30484802 -0.017824389
-0.47919664 -0.3040904 0.020842977
-0.41412285 -0.33567494 0.20824622
-0.4012596 -0.34199017 -0.22201833
-0.26650795 -0.39366084 -0.30456445
-0.48851007 -0.29813763 0.012520723
-0.48884004 -0.29846457 0.006676115
-0.4231829 -0.31896827 -0.18235923
-0.2777577 -0.3882705 -0.29722574
-0.4727528 -0.30362868 0.055161588
-0.30266887 -0.37985483 -0.28219944
-0.20343125 -0.4237948 -0.3119912
-0.17041165 -0.4523531 -0.31445983
-0.20559323 -0.43623868 -0.31220847
-0.23564678 -0.40951663 -0.31248584
-0.40079737 -0.3316277 -0.20596388
-0.48126376 -0.30493668 0.03405934
-0.47799373 -0.30490878 0.0359677
-0.23427705 -0.40890044 -0.30818388
-0.44349143 -0.30952457 -0.15051055
-0.35630172 -0.35313597 -0.2495118
-0.45736903 -0.3049791 -0.10348752
-0.2512832 -0.40354645 -0.31110707
-0.3451432 -0.358462 -0.2579214
-0.18379799 -0.43629804 -0.3070793
-0.419711 -0.3204917 -0.18922819
-0.3686678 -0.35654125 -0.254207
-0.23959881 -0.4198697 -0.30694914
-0.47213274 -0.3084212 -0.072309986
-0.43804848 -0.31258225 0.17464632
-0.3121733 -0.3843333 -0.28940344
-0.4779761 -0.29312024 0.011164084
-0.18409096 -0.43419456 -0.30877143
-0.3606208 -0.35177523 -0.24587356
-0.47993526 -0.29755324 -0.06714088
-0.41535246 -0.32611677 0.20032308
-0.42205656 -0.31946367 -0.18496354
-0.4336372 -0.3278005 -0.17524852
-0.34569907 -0.35627663 -0.25989836
-0.4418869 -0.3229988 -0.16490808
-0.48808578 -0.29635018 0.014869742
-0.26554108 -0.39801055 -0.30928028
-0.4789527 -0.30589563 0.079809465
-0.47396427 -0.30316323 -0.03259168
-0.46367663 -0.29979733 0.11164492
-0.47100168 -0.29739136 0.06767127
-0.24425846 -0.41784483 -0.30681264
-0.4837103 -0.2958312 -0.0366548
-0.46132505 -0.30138892 0.122974195
-0.47212136 -0.2957723 0.07000931
-0.16700917 -0.45381713 -0.31453687
-0.42963463 -0.3279001 -0.18917154
-0.22625615 -0.4263869 -0.3128357
-0.46730024 -0.29855323 0.08703472
-0.47283548 -0.29631117 -0.040592946
-0.38889885 -0.34291607 -0.22004831
-0.3651728 -0.35456902 -0.2427446
-0.40173304 -0.33792895 0.21756135
-0.44147074 -0.3152668 0.15416946
-0.42316008 -0.32276148 -0.17605306
-0.46061411 -0.3138412 -0.13060558
-0.4601046 -0.3071317 -0.1319718
-0.36407954 -0.3488176 -0.24409904
-0.47511262 -0.30602923 0.060342558
-0.25407946 -0.40249038 -0.31080967
-0.44685102 -0.30775803 0.14991757
-0.26592565 -0.40447974 -0.3092609
-0.2082381 -0.43273705 -0.30906627
-0.4398085 -0.31141183 0.161336
-0.3547936 -0.3652144 -0.25832313
-0.39299244 -0.34618542 -0.22197104
-0.47355288 -0.30291077 -0.09146656
-0.29454723 -0.38836634 -0.2991758
-0.4008158 -0.34178025 0.22307448
-0.44683206 -0.31905055 -0.15788096
-0.19073856 -0.43710783 -0.31910592
-0.38542408 -0.3411914 0.23471704
-0.43412375 -0.31754613 0.1675018
-0.42488754 -0.3234946 -0.1729824
-0.4821468 -0.2950076 0.053321928
-0.45197994 -0.3052526 0.14513789
-0.44276595 -0.31965196 -0.1660578
-0.38361806 -0.33885306 -0.22730032
-0.43374434 -0.32706723 0.19068635
-0.20762515 -0.4265098 -0.31997487
-0.2890749 -0.38842162 -0.30116376
-0.45620102 -0.31616524 0.1506997
-0.4336431 -0.31569335 -0.17434345
-0.47447032 -0.29816878 0.02612339
-0.4382739 -0.3196082 -0.14981714
-0.44960797 -0.31947488 0.15149829
-0.4482141 -0.3173182 0.1467818
-0.36080477 -0.36250567 -0.25535113
-0.40309995 -0.33691236 0.23342283
-0.25986493 -0.40477574 -0.31108654
-0.48416218 -0.3022095 0.048072934
-0.45720857 -0.3124413 0.15156752
-0.22257836 -0.42834452 -0.31198797
-0.45926258 -0.3023286 0.12927881
-0.3284703 -0.37777048 -0.2795689
-0.24556935 -0.41217977 -0.30129227
-0.33949322 -0.3655315 -0.26160198
-0.40395695 -0.33973676 0.23165822
-0.30558926 -0.37672302 -0.29116184
-0.47224626 -0.29549447 0.0778442
-0.47462317 -0.3075766 0.079110324
-0.40723452 -0.33554575 0.21145885
-0.47815406 -0.30645484 -0.06778547
-0.47046784 -0.3045729 0.11358137
-0.4594709 -0.3138784 -0.13352312
-0.47451246 -0.29642248 -0.016127132
-0.46492225 -0.30066696 -0.105329044
-0.42295507 -0.32090992 0.1887701
-0.47471088 -0.29554817 -0.07041472
-0.47497916 -0.30240032 -0.08687048
-0.4513119 -0.31378984 0.1375372
-0.44150853 -0.31720576 -0.16757616
-0.41688564 -0.33561683 -0.20090988
-0.25831822 -0.3985131 -0.30809203
-0.349114 -0.35954386 -0.26896688
-0.35142273 -0.35800213 -0.2523848
-0.21730268 -0.42335516 -0.3061337
-0.421539 -0.32438695 0.2102446
-0.4711384 -0.29852813 -0.050787963
-0.14925969 -0.4557358 -0.31664497
-0.46038184 -0.3123185 0.1453558
-0.4289624 -0.3166525 -0.16922006
-0.32876903 -0.3700752 -0.28374538
-0.42950758 -0.32563648 0.20177853
-0.43652746 -0.31908703 -0.17640218
-0.46450406 -0.3060742 0.13156027
-0.42728472 -0.33085468 -0.18667786
-0.45070964 -0.31521198 -0.15132819
-0.40484554 -0.32756075 0.21873459
-0.14858717 -0.45312414 -0.31589836
-0.46792257 -0.30990356 0.095867716
-0.39226493 -0.344245 -0.2187362
-0.40945792 -0.33933634 -0.20766592
-0.46499908 -0.30572614 0.09107747
-0.4613636 -0.30289385 -0.11954803
-0.28647888 -0.38663074 -0.300449
-0.2786371 -0.39229304 -0.30530524
-0.1852442 -0.44415668 -0.30803287
-0.29785752 -0.39167488 -0.29505047
-0.47677058 -0.293603 0.055374943
-0.44141638 -0.3140667 0.17587143
-0.466988 -0.31015268 -0.11227162
-0.31780118 -0.37718764 -0.2888696
-0.41691738 -0.32884088 -0.20504864
-0.44362694 -0.3221538 -0.16173664
-0.4525171 -0.31869113 0.15390296
-0.4221911 -0.333049 0.20259853
-0.44954294 -0.3087768 -0.14639372
-0.19115882 -0.4339664 -0.3188495
-0.15525985 -0.45091033 -0.30494738
-0.34310165 -0.35746104 -0.26198083
-0.45348102 -0.31007648 -0.11612432
-0.41317824 -0.32710582 0.20283063
-0.47456962 -0.3028819 0.10060041
-0.46218833 -0.30077872 -0.107165635
-0.46166623 -0.31106713 -0.13094114
-0.3329666 -0.3622825 -0.27492225
-0.15798217 -0.44692498 -0.30684757
-0.346058 -0.3675898 -0.26051933
-0.3081197 -0.3737313 -0.28434032
-0.48573008 -0.29317173 0.017682776
-0.42502075 -0.3288971 -0.1956196
-0.47116047 -0.2972592 -0.057364866
-0.44894436 -0.30682454 -0.13324907
-0.47760254 -0.30331856 -0.07881507
-0.35314736 -0.3636008 -0.25442398
-0.43773335 -0.3215694 0.18687001
-0.47519124 -0.3034284 0.037432753
-0.4718422 -0.30272725 0.057563975
-0.4848411 -0.29536462 -0.02498483
-0.33973914 -0.36723816 -0.27696553
-0.44891685 -0.31594968 -0.13170327
-0.46569657 -0.30045542 -0.076503634
-0.437343 -0.31796837 0.18569842
-0.39637446 -0.3346317 -0.21066591
-0.31659377 -0.36975968 -0.2801255
-0.38377243 -0.34997013 -0.23149294
-0.46952948 -0.30724862 -0.10571892
-0.46730542 -0.29968762 -0.09817023
-0.36546296 -0.359855 -0.2490633
-0.337456 -0.3734267 -0.2710131
-0.3966704 -0.33145735 0.22812441
-0.22926793 -0.4167869 -0.303995
-0.42225572 -0.3294163 -0.18227874
-0.48169625 -0.30478954 -0.021193169
-0.43112543 -0.3220587 0.19800901
-0.19363925 -0.44097394 -0.30948022
