0.40727663 -0.2062982 0.063573465
0.43843603 -0.1913453 0.06234449
0.42036223 -0.1907512 0.027349308
0.38480806 -0.24295789 0.03509295
0.39462143 -0.27073562 0.02812539
0.44813657 -0.18816748 0.05620037
0.4208062 -0.25505644 0.048142567
0.35399246 -0.31175098 0.06115371
0.38727462 -0.2129915 0.0441529
0.4494261 -0.16630507 0.06319407
0.4605322 -0.14050233 0.06067969
0.4519037 -0.14153318 0.02247633
0.43248296 -0.21571627 0.040217325
0.42337406 -0.24858001 0.047532722
0.4439975 -0.13343023 0.06513946
0.38874194 -0.24421862 0.063377246
0.48609546 -0.10394177 0.047398746
0.34066403 -0.31546217 0.048740357
0.3756653 -0.27222097 0.06388928
0.3579327 -0.28084445 0.04152067
0.39132065 -0.26302975 0.071694836
0.48433667 -0.11095366 0.04145685
0.41318366 -0.20320281 0.02821669
0.4369293 -0.22119254 0.047856167
0.37844366 -0.3323545 0.056132942
0.479912 -0.11309032 0.037807256
0.3826658 -0.28094286 0.071683824
0.40103608 -0.29409033 0.05306664
0.42788666 -0.19965982 0.06725623
0.38626903 -0.30021825 0.03449376
0.38202867 -0.24339241 0.0557207
0.37792993 -0.2766465 0.06863241
0.35628653 -0.33769935 0.07086392
0.37514195 -0.30037463 0.07026829
0.4098342 -0.2003623 0.031772673
0.4320153 -0.17195298 0.025425911
0.44650656 -0.12949939 0.0657924
0.38846225 -0.23257278 0.057009354
0.3849596 -0.30592123 0.036055207
0.4399262 -0.11209432 0.049642265
0.3835784 -0.26879403 0.070621684
0.46095854 -0.16407621 0.055325374
0.37641263 -0.25947386 0.05805318
0.4553637 -0.14829709 0.029724315
0.38505924 -0.3078159 0.060092524
0.38205385 -0.3328734 0.053226456
0.41666248 -0.24374378 0.037789002
0.39152074 -0.30142295 0.057557806
0.35523164 -0.33177346 0.07291818
0.41255027 -0.23796447 0.030351922
0.44410026 -0.10849135 0.039448053
0.40763396 -0.18969655 0.05530952
0.37361652 -0.24786115 0.04899387
0.3751359 -0.34105492 0.043783754
0.37209535 -0.30528829 0.0707715
0.40981174 -0.21800189 0.02536358
0.44184512 -0.10441105 0.047705173
0.4766336 -0.121850476 0.038841918
0.38189277 -0.26356655 0.029779747
0.4111992 -0.17543231 0.03982705
0.385969 -0.28836283 0.06649442
0.4497373 -0.17493108 0.059817404
0.46805412 -0.08039155 0.058805987
0.41244048 -0.18060112 0.05574502
0.39436746 -0.20897081 0.051070362
0.47447556 -0.0982285 0.05822654
0.40132958 -0.28856963 0.05485691
0.44222963 -0.12154647 0.03610021
0.39598036 -0.22848773 0.06297372
0.38054663 -0.26946175 0.06770618
0.36743134 -0.25510877 0.046111792
0.45527524 -0.1621905 0.0368668
0.35469368 -0.31680232 0.030859485
0.44404328 -0.12019819 0.058295503
0.45789444 -0.12694436 0.022342607
0.34982646 -0.324342 0.031776473
0.40724957 -0.2661018 0.0393043
0.47709256 -0.10756519 0.031894118
0.4402145 -0.20405206 0.04246314
0.4066721 -0.17656127 0.042823434
0.3955924 -0.2950569 0.056812108
0.42786756 -0.14369199 0.053123042
0.3590812 -0.3307402 0.071295485
0.413147 -0.2456582 0.035002246
0.3664841 -0.3288688 0.06640494
0.43775764 -0.21899004 0.052784294
0.39814758 -0.19680533 0.04880172
0.45020103 -0.100371756 0.054595232
0.46246865 -0.15825374 0.042558953
0.41227716 -0.19226018 0.06164296
0.4732295 -0.08958027 0.062314987
0.43250614 -0.16660783 0.07005389
0.42938507 -0.14179878 0.03839074
0.4202814 -0.20473273 0.022316754
0.44418436 -0.17989081 0.034149542
0.39367992 -0.3001861 0.04245402
0.37669218 -0.2425416 0.049533263
0.41082203 -0.23295715 0.025883093
0.41666996 -0.19445151 0.02878052
0.41448826 -0.17566146 0.05537592
0.37015623 -0.25650245 0.04118745
0.44880807 -0.1855484 0.04207377
0.3934543 -0.2448202 0.027906343
0.44078588 -0.13020855 0.03403139
0.47107393 -0.14928028 0.051312968
0.4640178 -0.16915359 0.051172912
0.44844013 -0.14091341 0.07279171
0.3606063 -0.33920413 0.067064166
0.3869499 -0.28054938 0.024980202
0.40413994 -0.19096136 0.052207485
0.4155779 -0.24263813 0.060864523
0.40918803 -0.25254208 0.034326956
0.43031323 -0.2303373 0.054254085
0.39805382 -0.2833809 0.03840749
0.41301537 -0.27278125 0.048990235
0.3827733 -0.33708048 0.04993415
0.40152708 -0.2245161 0.029226497
0.40183884 -0.19731873 0.053042427
0.43867055 -0.21115837 0.054950178
0.39475453 -0.27246517 0.06567283
0.44615114 -0.10434023 0.05230327
0.38289982 -0.29143673 0.06768483
0.46864027 -0.09898865 0.024438158
0.3475997 -0.30320135 0.049818665
0.4346747 -0.1436584 0.0337317
0.33826956 -0.3204866 0.048780426
0.3956251 -0.23380527 0.065361485
0.41754603 -0.15160578 0.04613565
0.372385 -0.31400812 0.026732743
0.39120138 -0.22952417 0.058369532
0.3491109 -0.30104372 0.04080251
0.36619198 -0.34135678 0.034313798
0.4710521 -0.08680411 0.027061462
0.43363494 -0.21220791 0.058358222
0.46180502 -0.08343004 0.03525108
0.4095555 -0.2719085 0.044811353
0.37771443 -0.28847265 0.07266778
0.38116777 -0.25342387 0.034020364
0.4549293 -0.1366248 0.06580052
0.41391897 -0.20984697 0.025242776
0.44544387 -0.15319619 0.022150993
0.45025533 -0.18925235 0.04556115
0.3772137 -0.2510227 0.03787142
0.39999557 -0.22622487 0.066116855
0.39691126 -0.2272526 0.031703994
0.3651058 -0.28664777 0.03400722
0.45449457 -0.11742333 0.067430094
0.4654601 -0.083573505 0.032447577
0.38529092 -0.31138894 0.03926018
0.4631992 -0.11060872 0.06225872
0.38393596 -0.31636292 0.057824448
0.4570889 -0.092030324 0.057663858
0.37498307 -0.24763343 0.040785134
0.38022655 -0.23897853 0.0514815
0.42293215 -0.15877983 0.055670485
0.3733676 -0.30688047 0.024077296
0.41056138 -0.18698871 0.036097243
0.45402935 -0.17985398 0.054793328
0.38870832 -0.30599695 0.058008447
0.4127547 -0.16599469 0.042094246
0.42829353 -0.15839678 0.06124194
0.40717092 -0.2157099 0.06836267
0.42424604 -0.22675487 0.060126036
0.42825955 -0.17086433 0.028649524
0.44930235 -0.19347228 0.046733722
0.43023378 -0.1291132 0.048075244
0.44810113 -0.0995904 0.03967911
0.43461996 -0.15925749 0.06850006
0.4218037 -0.21700642 0.029394284
0.43702015 -0.17417917 0.06966376
0.38943648 -0.26955512 0.021929339
0.3742204 -0.2909004 0.07206498
0.36162445 -0.29115865 0.034984395
0.48098296 -0.10839815 0.049623564
0.3972588 -0.30113995 0.05334176
0.4174287 -0.16552708 0.03874643
0.3931851 -0.23952864 0.030036658
0.36294037 -0.3301257 0.024962962
0.37190005 -0.3420607 0.040824622
0.4611368 -0.088476434 0.033915684
0.38745826 -0.26324555 0.025707409
0.4289999 -0.15917179 0.032351777
0.45697397 -0.17861548 0.047251865
0.35884768 -0.27967426 0.04966964
0.3506891 -0.3108108 0.057108223
0.4663741 -0.08775137 0.030237615
0.37724003 -0.2643836 0.03298427
0.4522178 -0.1535371 0.02906783
0.3780014 -0.32698426 0.058422193
0.37693894 -0.30419794 0.06752287
0.43452942 -0.20271099 0.035645053
0.38651 -0.21867919 0.04767017
0.3959438 -0.25635865 0.022059128
0.39803958 -0.26770586 0.064933896
0.43109888 -0.22482865 0.04347454
0.3335145 -0.33177722 0.049543902
0.44789517 -0.121017665 0.032028288
0.40233657 -0.2648914 0.062724754
0.42154884 -0.1465903 0.04783143
0.3677389 -0.32125103 0.025504887
0.41887462 -0.24636939 0.041537955
0.4585314 -0.1030753 0.030558512
0.37613064 -0.31295612 0.030216545
0.34226385 -0.30603647 0.045552105
0.40558082 -0.28825867 0.049050555
0.43380716 -0.124460384 0.04949777
0.37180007 -0.3202343 0.06554903
0.45796362 -0.11741365 0.025762528
0.36150336 -0.30667573 0.02942276
0.45186687 -0.098813914 0.037127435
0.43365777 -0.15002349 0.032178372
0.4585231 -0.111699365 0.027423069
0.40960974 -0.17662328 0.050625756
0.41400754 -0.20354868 0.06938623
0.45608222 -0.17515026 0.054961637
0.39152175 -0.22030225 0.05391033
0.47821662 -0.09125459 0.024607107
0.4501414 -0.094415836 0.040028438
0.40586823 -0.23879716 0.023593158
0.39722782 -0.20197079 0.040675774
0.34372306 -0.32923508 0.059208035
0.45053864 -0.12161865 0.06602712
0.47364852 -0.12771969 0.03868632
-0.5904626 -0.18271323 -0.0073898137
-0.4811206 -0.039937064 0.020747364
-0.46156716 0.105752006 -0.008465663
-0.5699344 -0.13659573 0.0011381358
-0.5885517 -0.15611066 -0.039637268
-0.5444383 -0.099924825 0.009478584
-0.5468409 -0.1529696 -0.026643708
-0.43614265 0.061978012 0.02240692
-0.46320945 0.07868023 -0.0136155635
-0.56464183 -0.09778605 -0.013382643
-0.45707265 0.0149309635 -0.017484501
-0.48737547 -0.002407007 0.020099357
-0.5141921 -0.08498005 -0.026919454
-0.43773812 0.035174355 -0.0072185993
-0.46288246 0.044116035 0.02222757
-0.51468474 -0.05689703 -0.025824443
-0.47046936 0.074319735 -0.0016734451
-0.51518905 -0.12618586 -0.0013603568
-0.5558522 -0.16461357 -0.03027758
-0.5293498 -0.053310446 -0.014014229
-0.4823318 -0.06517718 -0.0029414147
-0.47574824 0.040119976 0.01046057
-0.5450826 -0.07323238 -0.0051202476
-0.51347584 -0.10130685 0.011983573
-0.5198266 -0.059726216 0.0150292665
-0.46665406 0.024476841 0.028398767
-0.4395489 0.0621259 -0.023208022
-0.5181164 -0.07350486 -0.032075793
-0.58719194 -0.1578472 -0.006366864
-0.52606314 -0.107632235 -0.027896896
-0.5107986 -0.06570117 -0.03301224
-0.44535184 0.00032563508 0.01065512
-0.48993567 -0.014658548 -0.024000898
-0.52350676 -0.07031975 -0.026770234
-0.56678057 -0.100749314 -0.015956178
-0.59104884 -0.16416967 -0.04424709
-0.47490257 0.051890753 0.0052389354
-0.5082943 -0.0353911 -0.01995565
-0.5629982 -0.09372715 -0.013727888
-0.4644391 -0.030888595 -0.0015442371
-0.5832615 -0.13846183 -0.0122348815
-0.5947844 -0.17373276 -0.04927978
-0.45031458 0.07914622 0.017506763
-0.540163 -0.13946146 -0.026492625
-0.45773953 0.09907231 -0.013627648
-0.4459291 0.05601442 0.028725058
-0.4978842 -0.026203066 0.021184236
-0.47768795 -0.011196628 -0.02606371
-0.45005938 0.11057343 -0.018051371
-0.5263923 -0.10122285 -0.03159009
-0.47147137 0.054686636 -0.013499558
-0.40772772 0.08274135 0.003266409
-0.4396903 0.021217458 -0.002049163
-0.4600405 0.0053010136 0.023554176
-0.46625966 0.05150062 0.014745384
-0.57013553 -0.11486057 -0.022643656
-0.47857702 -0.06641365 0.0017444044
-0.46926585 0.034753688 -0.021256417
-0.49069554 0.029249102 3.451109e-05
-0.6113827 -0.16661003 -0.034540042
-0.41445622 0.11663589 -0.024595067
-0.4792742 -0.05699879 -0.0039107054
-0.49841893 -0.053144187 -0.026526064
-0.58718324 -0.18430036 -0.027004212
-0.5689477 -0.1599893 0.009766802
-0.4288134 0.05561675 -0.008261427
-0.48047453 0.006973557 0.022640735
-0.50662166 -0.08591058 0.015938476
-0.52353585 -0.0938641 0.02277559
-0.4511459 0.06885888 -0.025815547
-0.5886758 -0.16755962 -0.04812801
-0.5351504 -0.06438868 -0.015800357
-0.4953654 -0.040304758 0.030706003
-0.43591598 0.018141225 0.0036160946
-0.44320494 0.060822017 0.027828082
-0.4735875 -0.010844976 -0.021833181
-0.4980309 -0.05220432 0.026958615
-0.53988945 -0.1630245 -0.013923138
-0.49237797 -0.0115133375 0.019458577
-0.42550164 0.042537257 0.002117008
-0.5478307 -0.07300365 -0.008197486
-0.4955079 -0.08891717 -0.004756823
-0.4800017 0.050090767 0.0006879717
-0.4285817 0.068603896 0.017945796
-0.4666285 0.087843426 -0.008567914
-0.578779 -0.14674774 -0.0030934513
-0.58335733 -0.18615198 -0.012768343
-0.5038769 -0.033976287 -0.0223836
-0.5672613 -0.14071459 -0.04140082
-0.4824257 0.027898625 -0.013505191
-0.52583236 -0.07841481 -0.029520169
-0.41332388 0.083966665 -0.0063572973
-0.42263007 0.042264894 0.0053499043
-0.4869805 -0.02854047 -0.02703099
-0.48375517 0.04127861 -0.007961005
-0.58156586 -0.18001862 0.0027340353
-0.5010395 -0.071005024 0.01985015
-0.54106843 -0.13974205 0.006489128
-0.4674518 -0.04455322 0.0023314506
-0.5234061 -0.12418768 0.005071923
-0.59700716 -0.16220081 -0.039396346
-0.5112607 -0.06770355 0.028405353
-0.5405631 -0.057679683 -0.008658394
-0.49223238 0.031958304 -0.003031075
-0.44395247 0.027157433 0.018662259
-0.4245598 0.038098477 0.0066474676
-0.48728466 -0.08292757 0.0009743571
-0.49107718 -0.061237574 0.017823756
-0.58137447 -0.12672886 -0.016315907
-0.5906832 -0.1694499 -0.0040804893
-0.44092706 0.0012926906 0.0075958073
-0.49240786 -0.0064212754 0.01677373
-0.46853828 0.00796663 -0.02619806
-0.49275613 0.008106418 0.008830696
-0.5488251 -0.16796017 -0.007689178
-0.594284 -0.15839925 -0.013713196
-0.51809543 -0.02032575 -0.0036328435
-0.47669137 0.004675664 -0.02615656
-0.5467158 -0.07281349 -0.012651086
-0.50844455 -0.07494877 0.022840723
-0.5401528 -0.08985484 -0.02653876
-0.427011 0.08296274 0.019837245
-0.46734142 0.033950053 0.022723883
-0.46063465 -0.028266028 0.0109383315
-0.5772116 -0.15446192 0.0026123524
-0.47087103 0.044238687 -0.017041653
-0.47563812 0.06463239 -0.0021905303
-0.5806593 -0.18745777 -0.020238712
-0.5286046 -0.09071129 -0.03460768
-0.53027356 -0.13135178 0.005081415
-0.46823087 -0.03409072 0.013935536
-0.51127684 -0.04412341 -0.021986648
-0.5715158 -0.1639077 -0.047505513
-0.4494123 0.03887213 -0.021710977
-0.5352292 -0.13403027 0.0066013783
-0.41653702 0.08531691 0.011200786
-0.45688242 0.072326064 -0.020314649
-0.45162573 0.010147333 0.01877892
-0.4514917 -0.014636688 0.009564072
-0.54136324 -0.10165685 0.013690889
-0.51135 -0.02838973 -0.014511451
-0.4670562 0.04718882 -0.019177034
-0.5634826 -0.18353859 -0.028631985
-0.58088815 -0.15602459 -0.04408048
-0.541024 -0.10739345 0.017044425
-0.5342532 -0.15135647 -0.005277142
-0.5573222 -0.12190182 -0.03509648
-0.4524488 0.09324389 -0.019125178
-0.46015954 0.010551505 -0.01852578
-0.49209225 0.0016877279 -0.015845507
-0.5842122 -0.16787563 0.002064824
-0.50163543 -0.038966186 -0.026308164
-0.4576062 0.10777756 -0.012189254
-0.47563726 -0.035614654 -0.011135876
-0.4827131 -0.043324724 -0.014735773
-0.49705994 -0.09340958 -0.0040871203
-0.5596717 -0.18256006 -0.025039673
-0.555136 -0.18718308 -0.017612144
-0.5280316 -0.057665534 -0.01715982
-0.49759722 -0.07149998 -0.016079187
-0.45509034 0.040913865 -0.028886452
-0.43107873 0.093511775 0.024881259
-0.419989 0.098542854 0.013821527
-0.45807052 0.09028283 -0.0149143785
-0.45680928 -0.01978819 0.011547044
-0.5289936 -0.14193922 -0.0023448616
-0.44738397 0.04745686 -0.023999885
-0.5227508 -0.08011835 0.022504881
-0.44675118 0.09880542 -0.022935882
-0.5117572 -0.11619387 -0.00803785
-0.48715127 -0.067270346 -0.007038623
-0.54978454 -0.17917442 -0.014976248
-0.49557912 -0.07756162 0.0127553195
-0.5527363 -0.15131462 -0.03385161
-0.42041183 0.055562943 0.008091286
-0.4124105 0.09469741 0.0090447515
-0.54877555 -0.09449473 0.001981184
-0.46850473 -0.019983783 -0.011601254
-0.4774019 -0.03725537 0.019207716
-0.5025324 -0.08769286 -0.012955844
-0.43605566 0.05344955 0.02020292
-0.5439735 -0.09197248 -0.02521734
-0.5907877 -0.18255585 -0.03990546
-0.5638764 -0.13503519 -0.03966312
-0.5996022 -0.14622526 -0.026175275
-0.45438373 -0.0071447715 -0.0030899197
-0.46042472 0.004538402 -0.015678704
-0.45312294 0.046372563 -0.029612422
-0.55620253 -0.13929021 -0.0438468
-0.47604433 0.045704283 0.0072327703
-0.40553248 0.12150387 -0.017525539
-0.43116713 0.100049846 0.025921121
-0.60683966 -0.16652763 -0.03705442
-0.47897446 -0.00794784 -0.02914095
-0.4550208 0.056886807 -0.025796592
-0.46668208 0.029601052 0.025699198
-0.60828424 -0.17383912 -0.02073963
-0.5752175 -0.17099833 0.0057573617
-0.53672254 -0.11962968 0.016296789
-0.51116437 -0.08613264 0.018908188
-0.5722675 -0.1409994 -0.038646877
-0.45154858 0.06505394 0.023519814
-0.42386198 0.06007474 -0.0052541196
-0.43137285 0.031248689 0.009994611
-0.53853273 -0.11110345 0.021658748
-0.45669717 0.0062466934 -0.012556344
-0.5820821 -0.13365035 -0.0134718865
-0.4628462 0.06535155 -0.017231792
-0.5655084 -0.15974642 -0.04320702
-0.52744156 -0.13909288 -0.012991324
-0.5469929 -0.088730745 -0.021412134
-0.5065432 -0.06156268 -0.030885398
-0.55806315 -0.11695012 0.0036820471
-0.50630546 -0.050083585 0.024560094
-0.5199998 -0.11535575 0.0082736015
-0.49435413 -0.045460634 -0.026153445
-0.5031559 -0.008011423 -0.011611864
-0.46387827 0.024389632 -0.028886616
-0.45745933 0.04449199 -0.02752015
-0.5383126 -0.10369636 0.018037021
-0.5913674 -0.17607293 -0.052967027
-0.5233132 -0.041720137 0.0018960536
-0.5549819 -0.14845844 -0.03775671
-0.4946692 -0.06375081 0.019154504
-0.53221613 -0.13578653 0.0036203861
-0.5707699 -0.19224396 -0.02936761
-0.44449154 0.086733595 -0.02699107
-0.4697076 0.07064651 0.0010600686
-0.53882635 -0.1256729 -0.03223698
-0.48525006 -0.06976383 -0.003693208
-0.47594148 0.025573157 0.01783073
-0.46214414 -0.008090697 0.019992888
-0.45834628 0.03075596 -0.02709943
-0.5519557 -0.16488338 -0.0036880523
-0.5056298 -0.03215368 0.015946865
-0.4754879 -0.003462255 0.031689465
-0.42207873 0.085667916 -0.016667277
-0.5569037 -0.16607815 -0.0016048849
-0.5037504 -0.08272403 -0.01685536
-0.4920373 0.0046675876 0.011395931
-0.50479925 -0.026754148 0.014028028
-0.5664226 -0.19428477 -0.016520977
-0.5619662 -0.12072101 0.001445353
-0.51817787 -0.038633086 -0.014561191
-0.49223286 -0.016206704 0.022059783
-0.5337076 -0.06936134 0.0051071197
-0.57019764 -0.14527485 -0.042861626
-0.566856 -0.14252374 0.0075399578
-0.5212016 -0.062316857 -0.02420038
-0.5340214 -0.084839486 0.0128326565
-0.57988405 -0.18350494 -0.046304032
-0.4661276 -0.009426951 0.022444189
-0.5141707 -0.019618154 0.00022308528
-0.560974 -0.16785693 -0.034101024
-0.43269593 0.057100818 0.018405408
-0.52201474 -0.073705465 0.019956395
-0.57021046 -0.14088044 0.0030731708
-0.57773936 -0.13034193 -0.01052089
-0.55786633 -0.10672427 -0.001433149
-0.5298728 -0.1521711 -0.0087952465
-0.5051288 -0.10139159 -0.008614257
-0.50655764 -0.1023982 0.006823972
-0.58138156 -0.14386344 -0.03527388
-0.5034585 -0.088193215 0.012611344
-0.47091293 -0.0073165596 -0.02079238
-0.5457812 -0.084130935 -0.00019466877
-0.4519121 0.04620429 0.030549914
-0.57303107 -0.14888349 0.0042062104
-0.54182744 -0.09647645 0.010492504
-0.59672785 -0.15149944 -0.019938111
-0.57445014 -0.12266698 -0.010978669
-0.5309025 -0.072118275 0.0095627755
-0.46485567 0.07524441 0.0038873851
-0.53773 -0.14295161 0.002346158
-0.59944344 -0.17341173 -0.046396777
-0.47165632 0.06099613 0.003989801
-0.5062086 -0.070279315 0.023734882
-0.46941411 0.0062415525 0.030886114
-0.5152806 -0.053235106 0.016541034
-0.43072087 0.09039892 -0.028434262
-0.44891053 0.06503926 -0.028575182
-0.5670187 -0.10862564 -0.02058974
-0.5576526 -0.17597371 -0.026297465
-0.4429273 0.04997155 0.024588168
-0.59133637 -0.18229038 -0.01729472
-0.5426153 -0.12508139 0.01672703
-0.48098838 0.005745068 -0.022551537
-0.48117924 0.05345571 -0.0023324937
-0.4281912 0.065019324 -0.01248996
-0.5781066 -0.12984706 -0.027553722
-0.58963645 -0.18311307 -0.034667343
-0.4956925 0.003123261 -0.012618676
-0.47367698 -0.04392647 0.013667017
-0.5172664 -0.101797506 -0.021467656
-0.50875884 -0.026528642 0.009648442
-0.53807694 -0.15187365 -0.003272161
-0.5259237 -0.077007204 0.017468765
-0.4909666 -0.0092090145 -0.020927817
-0.56130815 -0.12464064 0.004195586
-0.5839328 -0.18587348 -0.006620392
-0.4369797 0.040791616 -0.009328559
-0.49305248 -0.0918683 -0.0005764514
-0.48492157 0.019897722 0.011121154
-0.5833888 -0.18613675 -0.035401806
-0.5531183 -0.115033686 0.008006379
-0.57779586 -0.1800444 0.00057700276
-0.47207436 -0.059570737 0.0051790476
-0.49568337 -0.016284853 0.01838635
-0.47496942 0.04061964 -0.014907315
-0.5172368 -0.050782584 -0.020953283
-0.49808285 -0.027126677 -0.023443326
-0.5594915 -0.15325424 -0.040112555
-0.51116157 -0.049187772 -0.024457619
-0.5651645 -0.19495681 -0.024258211
-0.51017207 -0.019217975 0.0043188035
-0.49992743 -0.043609113 0.028052509
-0.4078511 0.106958576 -0.0150616765
-0.4914778 -0.031893775 -0.030124977
-0.4718899 0.06608766 -0.009819433
-0.5231187 -0.034346946 -0.0090765655
-0.5542433 -0.1431362 -0.039734364
-0.52395165 -0.0378981 -0.00078219175
-0.40182036 0.09682945 -0.00067578256
-0.44984567 0.06185396 0.027019829
-0.5061619 0.0003344193 -0.0058987886
-0.6130892 -0.16415939 -0.030954316
-0.59496284 -0.1672796 -0.044353202
-0.47795397 0.023588397 -0.018386185
-0.5844436 -0.15347126 -0.04019493
-0.5184196 -0.07585579 0.024946377
-0.4390577 0.007696755 0.0056753606
-0.53474736 -0.092542075 -0.031600192
-0.4697932 0.036948606 0.018522725
-0.5008217 -0.07754478 0.016323432
-0.58170223 -0.14473602 -0.007288009
-0.42678142 0.09458824 0.021354765
-0.53464985 -0.0766069 0.007867485
-0.44732368 0.10462997 -0.021415979
-0.5326541 -0.14092824 0.0005581975
-0.42913264 0.045984626 -0.0035872608
-0.4868441 0.025699444 -0.010868534
-0.43346834 0.077227786 -0.024530172
-0.43535194 0.052238934 -0.013539851
-0.44716382 0.0093439445 -0.0039081722
-0.49401593 -0.05176869 0.02435103
-0.51831764 -0.12976691 -0.008028731
-0.46087345 0.094263315 -0.011842996
-0.5692253 -0.17664939 -0.0017446429
-0.43642917 0.0936498 -0.03255433
-0.5142712 -0.039793983 -0.017845422
-0.5087267 -0.09487963 0.01247403
-0.5603822 -0.102484025 -0.0063501596
-0.47743362 0.00012613088 0.029481098
-0.55765575 -0.11190232 0.0014909804
-0.490651 -0.07281707 -0.0079161525
-0.47386062 -0.045742057 -0.00394769
-0.5526877 -0.1695737 -0.024287373
-0.51849675 -0.08715204 -0.030421525
-0.4660293 0.019335486 -0.028950185
-0.57484686 -0.16769692 -0.049117133
-0.44522014 0.08265028 0.021164984
-0.5026224 -0.046821512 0.02682516
-0.51201296 -0.11086398 -0.011089742
-0.4299142 0.079729244 0.018914893
-0.47101417 -0.02608464 -0.011124209
-0.4555093 0.016322568 0.023840621
-0.60575366 -0.1715127 -0.041397974
-0.43176538 0.05180265 0.016332194
-0.47148144 0.029487804 0.020592138
-0.5711332 -0.1111987 -0.013382643
-0.56124014 -0.11291781 -0.0018382072
-0.41615486 0.066314876 0.0073298514
-0.536807 -0.15816276 -0.013137862
-0.5703636 -0.1342009 -0.03514293
-0.4495328 0.050126724 -0.027703747
-0.5842484 -0.18400198 0.0012777299
-0.52254176 -0.05797752 0.011195675
-0.519073 -0.038763665 0.0049200505
-0.53896403 -0.08959465 0.009989604
-0.524744 -0.14461413 -0.006697327
-0.4782933 0.013311081 0.021687135
-0.49046606 -0.04543203 -0.021983236
-0.5205614 -0.13501997 -0.0033146888
-0.5248275 -0.03234888 -0.0046158284
-0.5550975 -0.13767385 0.016437128
-0.6071987 -0.16329306 -0.0344325
-0.45612836 0.06122958 -0.023689255
-0.5416233 -0.110186964 -0.037665486
-0.4213796 0.06335404 -0.004290417
-0.5770619 -0.18919878 -0.03884341
-0.52166 -0.14051147 -0.0059527904
-0.5191093 -0.06944007 -0.02930148
-0.4770884 -0.008492112 0.030954137
-0.5651008 -0.18171215 -0.0078703165
-0.58361334 -0.17259988 0.0051704794
-0.51758856 -0.11856302 0.0047940165
-0.48679775 -0.059176758 0.015797779
-0.5221405 -0.08166771 -0.03377436
-0.5717267 -0.12303945 -0.027013302
-0.46302098 0.032334104 0.028216243
-0.50318 -0.052897893 -0.03177917
-0.45078102 0.06918372 0.022194609
-0.46790987 0.059485443 0.008809432
-0.4334881 0.102751635 0.023321599
-0.49522227 -0.00958173 0.015390739
-0.39926004 0.10503559 -0.0007093251
-0.4605708 0.015877321 -0.021742925
-0.5861852 -0.18478338 -0.05222483
-0.49465537 -0.08443867 -0.00617224
-0.5427655 -0.062831566 -0.008044377
-0.5708464 -0.1718694 0.002567634
-0.43997282 0.08644303 0.02483739
-0.54797477 -0.104182184 0.007889792
-0.53195447 -0.1078689 0.020413041
-0.5309448 -0.07034973 -0.021735445
-0.48188835 0.014979765 0.016948104
-0.5294073 -0.101332575 -0.034778357
-0.5095863 -0.031655088 0.011428371
-0.43458515 0.06602948 -0.019898623
-0.44984627 -0.0008279681 0.013626456
-0.52437747 -0.07104366 0.016026467
-0.46803516 0.07745423 -0.010020584
-0.4729537 0.016085677 0.025989205
-0.4945081 0.01314652 -0.009662271
-0.49089283 -0.06142004 -0.014113739
-0.5463946 -0.08471954 -0.019551858
-0.49073863 -0.04730738 0.02415979
-0.5175843 -0.09194733 -0.026941285
-0.45237997 0.07255144 -0.02389811
-0.52101505 -0.043791264 0.0054487884
-0.45516765 0.029813021 -0.023186758
-0.56004584 -0.13566667 -0.042423263
-0.5306483 -0.1458467 -0.0038848668
-0.48883253 0.019861087 -0.011322066
-0.49466413 -0.00233531 -0.015472531
-0.521797 -0.101082 -0.0267172
-0.55473864 -0.11210495 0.004736498
-0.4211657 0.067309074 0.011628315
-0.43209833 0.04148774 0.01357466
-0.5046926 -0.10741815 -0.0050052404
-0.56553817 -0.13025607 0.0025677234
-0.5001651 -0.04834409 0.030263364
-0.48900843 -0.08771344 0.0016120821
-0.5121231 -0.10309223 -0.015256941
-0.480008 0.04400383 -0.009922326
-0.47764426 -0.054306917 0.011682868
-0.6044627 -0.15346132 -0.02724187
-0.5369784 -0.1215014 -0.032420993
-0.5620777 -0.18792173 -0.024836406
-0.43487054 0.083511166 0.026658595
-0.46125168 -0.034021452 0.0035187453
-0.4641432 0.09846459 -0.0074421316
-0.5922973 -0.1663311 -0.0074426085
-0.45383066 0.069311 0.018845648
-0.46173954 0.07428325 0.0077422857
-0.4170044 0.06353751 0.0003234297
-0.5587026 -0.14739774 -0.04231426
-0.5508325 -0.07784943 -0.008904174
-0.48894158 0.030210763 -0.007736698
-0.5756861 -0.118422195 -0.014520258
-0.5364933 -0.10862371 -0.03860739
-0.48614782 -0.048545398 -0.01571317
-0.49563402 -0.035118446 0.028250724
-0.48400742 -0.04284148 0.021551296
-0.5076503 -0.077736124 -0.023651615
-0.49409497 -0.06229972 -0.017102256
-0.4084394 0.116036594 -0.017806381
-0.5355846 -0.13884851 0.0037128925
-0.5318018 -0.0505658 -0.0109309405
-0.47091174 -0.0019143 0.028877765
-0.43558106 0.10261632 -0.031671554
-0.49940822 -0.018190458 -0.018668234
-0.5332774 -0.12840247 0.008779585
-0.4462525 0.04226263 -0.020076066
-0.60414964 -0.15652388 -0.03110002
-0.5162877 -0.12045173 -0.0106963515
-0.5461411 -0.13047162 0.015656456
-0.50973046 -0.07469573 -0.027474567
-0.5335637 -0.110454895 -0.034500018
-0.5205398 -0.117095776 -0.017021641
-0.5286982 -0.110207655 0.016923904
-0.57324284 -0.1800535 -0.0020118654
-0.5628574 -0.17541865 -0.0046319366
-0.57361454 -0.16113724 0.009961709
-0.5617158 -0.19476403 -0.019549295
-0.57936907 -0.18808219 -0.03447479
-0.48012325 -0.022521876 -0.022785217
-0.44353354 0.041713938 0.022638425
-0.53753376 -0.11617555 0.01890999
-0.51761806 -0.06499753 0.020152599
-0.55535996 -0.1602683 -0.03201136
-0.49061126 -0.004096329 -0.019161284
-0.5465226 -0.1228108 0.01915741
-0.40546712 0.09580377 -0.004066825
-0.5543869 -0.08756333 -0.007669762
-0.5328578 -0.13041824 -0.02334036
-0.5548013 -0.16121414 0.0005607009
-0.4301056 0.082383424 -0.023596361
-0.4346233 0.047788844 -0.01043728
-0.4763193 -0.027931735 0.022408798
-0.47231564 0.038287617 -0.017726794
-0.49196365 -0.08214537 0.007931635
-0.5156969 -0.06727018 -0.030497268
-0.45865703 0.06798177 -0.019962698
-0.541564 -0.128847 0.013772234
-0.44942838 0.022202983 -0.013044566
-0.458793 -0.004546821 0.018857062
-0.46296966 -0.024279967 -0.003405273
-0.5396277 -0.1354109 0.00843747
-0.49825615 -0.031014025 0.023290157
-0.4911231 -0.07816836 0.0094162375
-0.5201303 -0.12577379 -0.012060046
-0.4322881 0.052206144 -0.010224864
-0.4600755 0.057817064 -0.021546066
-0.4915436 0.01888837 0.0045190454
-0.5159882 -0.047552243 0.012818962
-0.50576437 -0.043543972 -0.02557601
-0.4894393 0.017159998 0.007684484
-0.5044286 -0.06758959 -0.025469586
-0.47734436 -0.0145485625 0.028825969
-0.43762374 0.080056764 -0.030476794
-0.5874588 -0.17810777 -0.05670558
-0.50730634 -0.023545258 -0.01525192
-0.559256 -0.16043618 0.0037346631
-0.4550103 0.05221235 -0.027178273
-0.6026522 -0.15917066 -0.022318795
-0.49110454 -0.027764052 0.029295057
-0.6054457 -0.15886343 -0.02548574
-0.56902426 -0.10522999 -0.017253816
-0.4258427 0.098931074 -0.027628183
-0.56128776 -0.09834113 -0.009483144
-0.585447 -0.17720997 0.0055983365
-0.4166506 0.076418534 0.009986401
-0.50637805 -0.09388714 -0.013868362
-0.5985627 -0.17547671 -0.009422287
-0.606984 -0.17471734 -0.036031917
-0.47958124 -0.003961988 0.02929911
-0.41549665 0.06806306 -0.00041118264
-0.53707516 -0.13680261 -0.024554014
-0.5013546 -0.10072641 -0.004898265
-0.52383554 -0.05631396 -0.019309878
-0.57260716 -0.15945968 -0.050997406
-0.46336275 0.03411618 -0.025989726
-0.43135852 0.026757345 0.008663803
-0.50662017 -0.003738016 -0.0072838366
-0.48625454 -0.07527961 0.007603362
-0.5292598 -0.119577885 -0.02511473
-0.49785057 0.010016948 0.0023517758
-0.5741249 -0.12741819 -0.008153394
-0.41302222 0.0757322 0.0067735016
-0.55669475 -0.15690431 -0.03520064
-0.4236197 0.056435615 -0.003097549
-0.575759 -0.1659134 0.009637788
-0.6051646 -0.17407003 -0.0172614
-0.5314033 -0.07925958 0.012743935
-0.4503643 0.08986292 0.011870414
-0.47087592 -0.030558117 0.017355546
-0.52441216 -0.06628848 0.013511956
-0.50819206 -0.107332386 0.005125627
-0.5103328 -0.038181134 0.014024496
-0.5807423 -0.16533047 0.0044739097
-0.58454424 -0.14760125 -0.008854508
-0.5019791 -0.101444654 0.004351288
-0.47183838 -0.054062583 0.007729903
-0.60280204 -0.1767413 -0.01389125
-0.48325485 -0.05734311 -0.00801605
-0.5175109 -0.09701347 0.01704666
-0.43758285 0.09421402 0.023361638
-0.52307576 -0.039490096 -0.011533812
-0.59483796 -0.18059567 -0.03097725
-0.5462459 -0.11121249 -0.035352126
-0.5104299 -0.094730005 -0.01779069
-0.5936248 -0.14857557 -0.018121183
-0.43585974 0.0732268 0.024981558
-0.4795977 0.018798992 0.017424151
-0.5669273 -0.17648622 -0.036013797
-0.5045454 -0.012104519 0.006669551
-0.5603759 -0.14340377 -0.04619603
-0.49580652 -0.020319022 0.020355389
-0.45266333 0.024977043 -0.024072513
-0.57318795 -0.17964977 -0.04110466
-0.49016047 0.011463031 0.009876072
-0.4322981 0.0616922 -0.015177324
-0.5832598 -0.13859338 -0.030474871
-0.48249966 -0.031138577 0.025502399
-0.574525 -0.12804243 -0.028568745
-0.440646 0.07939032 0.027786866
-0.44751367 0.078200325 0.021014422
-0.46368176 0.036847524 0.025153726
-0.47588003 -0.0028686598 -0.028456047
-0.45500308 0.013054945 -0.0142795
-0.55573887 -0.11933418 0.007425934
-0.5392372 -0.097882025 -0.03170626
-0.4119436 0.11496099 -0.021017969
-0.4414713 0.10826573 -0.02570106
-0.4815311 0.044845194 0.0017743707
-0.46719795 0.08176616 -0.009622619
-0.45573342 0.033748195 -0.025845721
-0.5078667 -0.06320182 0.02851747
-0.612106 -0.17223842 -0.0342326
-0.5800801 -0.18773809 -0.030057386
-0.5663552 -0.1374183 0.0054193735
-0.423072 0.10292764 -0.02672784
-0.50737906 -0.105233334 -0.009035051
-0.45553005 0.010536253 0.021899119
-0.4715895 0.07165273 -0.008592784
-0.4323515 0.070492975 0.02146466
-0.46039122 -0.023667455 0.01272665
-0.52938503 -0.09174762 0.021422014
-0.4493237 0.002224423 -0.0025241673
-0.58394533 -0.16139638 -0.04620257
-0.4584748 0.0015859902 -0.012041777
-0.45059773 0.030744314 0.024961486
-0.55789113 -0.14151615 0.01563777
-0.5481559 -0.11793822 0.014860943
-0.4311161 0.089222424 0.024280638
-0.5249756 -0.09048609 0.02551113
-0.60056794 -0.17013857 -0.01436159
-0.46867424 0.063117325 0.0060946792
-0.5761063 -0.15176135 -0.043917164
-0.47063288 -0.0505199 0.0020156354
-0.55576146 -0.096878596 -0.020603165
-0.52644837 -0.051896878 0.0038229823
-0.4312232 0.021985047 0.0066649467
-0.5116766 -0.122789845 -0.004515007
-0.5770616 -0.18919893 -0.016411006
-0.5370019 -0.083691426 0.009026393
-0.5559695 -0.13370061 -0.04363568
-0.48792213 0.032783292 0.0011786968
-0.5993553 -0.17840943 -0.04378079
-0.42230245 0.09109315 -0.019734353
-0.42019528 0.05150163 0.0031588376
-0.5271524 -0.12514092 -0.019948319
-0.52434504 -0.11866957 0.009020001
-0.56773126 -0.1493854 -0.04719588
-0.4472757 -0.00337594 0.010739267
-0.45680267 0.05718241 0.021964952
-0.481373 0.029600494 0.00988619
-0.5071912 -0.008725733 -0.009002626
-0.5244626 -0.11438016 0.011699617
-0.44754156 0.04878343 0.027868867
-0.5199732 -0.102692224 0.015474528
-0.5790411 -0.11878584 -0.01794222
-0.5524589 -0.12437881 0.013584435
-0.58173543 -0.18693694 -0.025560379
-0.44983763 0.05381959 0.031155244
-0.4049195 0.10118825 0.0035773963
-0.5071057 -0.110717766 -0.005883798
-0.45507452 0.06279582 0.02090086
-0.55085176 -0.08534857 -0.016976476
-0.48280007 0.03247609 -0.011670411
-0.4865895 -0.017798483 0.028963521
-0.5573338 -0.08715761 -0.01105319
-0.4524746 0.09949543 0.0045809
-0.5722795 -0.19151336 -0.020631507
-0.56347317 -0.13929036 0.009496823
-0.46060658 0.081908554 0.00498949
-0.51325995 -0.09848715 -0.018879652
-0.47385886 -0.0047843903 -0.025282517
-0.56585777 -0.10283537 -0.01206103
-0.42614627 0.06997942 -0.012872681
-0.5768545 -0.16103533 0.006421119
-0.5041676 -0.0770495 0.018851012
-0.5057375 -0.0046541616 0.0015051663
-0.5427189 -0.07140884 -0.0144880265
-0.58755416 -0.15105623 -0.036668003
-0.46607876 0.039336503 -0.022252992
-0.5982784 -0.15649623 -0.034409255
-0.5527587 -0.1647679 -0.02686727
-0.40489882 0.08736536 0.0009408891
-0.53401333 -0.05592107 -0.012196675
-0.494218 -0.01695659 -0.021889463
-0.52364445 -0.1026254 0.017924547
-0.46679604 0.06753923 -0.013492718
-0.40322906 0.10196771 -0.00486885
-0.5156336 -0.08507164 0.02249083
-0.39732033 0.11035278 -0.001589179
-0.6044509 -0.16861323 -0.019335866
-0.42493325 0.0672324 0.014655098
-0.5192808 -0.09062777 0.021798387
-0.508709 -0.056975767 0.025563344
-0.5555679 -0.11038131 -0.02892758
-0.4073428 0.09856901 -0.0075263083
-0.54637504 -0.09737823 0.006067291
-0.44215858 0.009251833 0.0015274435
-0.51511353 -0.11199908 -0.013835937
-0.45901734 0.017531388 0.02693452
-0.5919627 -0.15943679 -0.040189564
-0.46410984 -0.0042495728 -0.015067309
-0.44029483 0.09632166 0.019344509
-0.49673915 -0.09602067 0.003956005
-0.54798245 -0.14622064 -0.031388327
-0.42799973 0.038247943 0.009397179
-0.5557736 -0.09250723 -0.0065868795
-0.5713639 -0.17101906 -0.043637425
-0.42092258 0.07837301 -0.011622548
-0.46325636 -0.0037375763 0.022486493
-0.47680545 0.01528693 -0.022074163
-0.4776709 -0.06271434 0.0077338964
-0.4309793 0.10312402 -0.03534153
-0.46515137 0.010702446 -0.023977593
-0.5464284 -0.17494582 -0.013996154
-0.46863657 0.025309324 -0.02493368
-0.51385045 -0.10961346 0.00756222
-0.44346905 0.06889665 -0.030954853
-0.50310194 -0.038810782 0.022135809
-0.4794061 -0.04449208 0.017548531
-0.5843246 -0.12564325 -0.020996451
-0.57507575 -0.19016004 -0.026251242
-0.44282502 0.05042275 0.028973356
-0.58885705 -0.14709687 -0.03312674
-0.56046045 -0.12966302 -0.038246006
-0.59454954 -0.14539766 -0.02077207
-0.5046214 -0.10525156 0.0039488375
-0.4805096 -0.0501787 0.015638202
-0.5353131 -0.15595046 -0.0076293945
-0.44631013 0.08839637 0.016998306
-0.5011462 -0.062136628 -0.02477707
-0.46594426 0.045241028 0.018345803
-0.5686114 -0.11812897 -0.0070578605
-0.559488 -0.0899372 -0.014020249
-0.48116255 -0.027533308 -0.021293253
-0.573974 -0.15408991 0.005903542
-0.5680435 -0.16739792 -0.04194975
-0.5956757 -0.16361901 -0.012491927
-0.5310651 -0.085939124 0.016587645
-0.47255734 -0.018579654 0.02368781
-0.48916912 0.003969632 0.014846757
-0.47772327 -0.025570966 -0.018613473
-0.57128745 -0.15234983 -0.04717292
-0.5477994 -0.15397775 0.0013103038
-0.42997128 0.0709511 -0.017496169
-0.43035653 0.029117398 0.0038822591
-0.46420497 0.027686372 0.029362991
-0.5956875 -0.17106667 -0.008624852
-0.54532063 -0.14654273 0.0046503693
-0.4202057 0.055253938 0.0011928529
-0.5939411 -0.18102975 -0.021171361
-0.5890506 -0.17703417 0.0016278625
-0.49845585 -0.103113845 -0.00053435564
-0.5983764 -0.17888317 -0.023859888
-0.4619624 -0.01308959 0.017943665
-0.580468 -0.13858703 -0.009162754
-0.58630335 -0.14285502 -0.031662688
-0.46608043 -0.04878577 0.0060124993
-0.49741122 -0.060671248 0.022528976
-0.6037007 -0.1763064 -0.021934718
-0.44810733 0.042681627 0.027320176
-0.52621883 -0.0613541 -0.020296216
-0.4544785 0.03193018 0.02833268
-0.4754471 -0.065459415 0.00461632
-0.51804495 -0.06414855 -0.02729027
-0.42680597 0.10228698 0.022510871
-0.55613816 -0.1497005 0.009214982
-0.49542952 0.0012648031 0.009517148
-0.49421662 -0.08027602 -0.007868499
-0.604978 -0.17568815 -0.03957884
-0.45902595 0.098977596 -0.0022011995
-0.45160145 0.025532082 0.023966387
-0.43457082 0.08990766 0.027345166
-0.5149303 -0.06695764 0.02406682
-0.5036081 -0.02081991 0.012218699
-0.47709316 -0.02118159 0.025852636
-0.42477196 0.098747656 0.02024445
-0.48927766 0.013858013 -0.01327984
-0.54506445 -0.106256574 0.012103096
-0.4482682 0.09942068 0.009147555
-0.4090737 0.09262437 0.0058778077
-0.46493977 0.05723378 -0.01788953
-0.53267044 -0.1347723 -0.020870492
-0.4617213 0.0011257231 0.02320613
-0.46353993 -0.042470835 0.0054573417
-0.53834176 -0.13345626 -0.027660668
-0.5075319 -0.029314704 -0.017622426
-0.58238125 -0.18662438 -0.047337055
-0.47254613 -0.00671041 0.028258279
-0.4850958 0.024307095 0.008636564
-0.44374865 0.08250271 -0.028395474
-0.55804116 -0.18064299 -0.011132106
-0.552738 -0.09545064 -0.0017859936
-0.40952826 0.090989806 -0.005930409
-0.5394299 -0.15442207 -0.017909855
-0.5867686 -0.18450099 -0.019332856
-0.55226034 -0.13683268 -0.04088363
-0.49767178 -0.07267088 0.016703159
-0.57882744 -0.15207064 -0.00037260354
-0.4057797 0.09334943 0.003159389
-0.5942937 -0.14681286 -0.029719219
-0.56793374 -0.18102974 -0.03473018
-0.4766847 0.031058185 -0.016829744
-0.5959342 -0.18006513 -0.007979333
-0.57812345 -0.16578665 -0.05278723
-0.45387325 -0.025231011 0.0072802007
-0.5279859 -0.13538395 -0.015509397
-0.5488968 -0.15088141 -0.029944494
-0.44963947 0.09624162 -0.020958379
-0.57161987 -0.18312076 -0.0052261055
-0.4575492 -0.006646529 -0.0067567527
-0.46723324 0.01294563 0.031669557
-0.4722821 0.022753716 0.02323845
-0.48859107 -0.035174042 -0.025308862
-0.576588 -0.1414854 -0.03643675
-0.587609 -0.16297626 -0.004143864
-0.4483315 0.08814269 -0.023503736
-0.46935934 0.07897024 -0.002901286
-0.48474753 -0.07860727 0.0048604906
-0.5600399 -0.12816763 0.007398039
-0.4146716 0.079302736 -0.0053783506
-0.42986965 0.08678886 -0.025637373
-0.48827946 0.0010839552 -0.018912151
-0.59436166 -0.15155953 -0.03300309
-0.45281148 -0.018944852 0.0047496706
-0.46478593 0.093681194 -0.0086491555
-0.5022931 -0.00019001961 0.0028871298
-0.448071 0.005626805 0.01452966
-0.54565287 -0.1000881 -0.02897209
-0.47536343 0.03252951 0.014829025
-0.49665344 -0.02150891 -0.022075608
-0.50830334 -0.015488185 0.0043872297
-0.45432663 0.022590555 0.025056347
-0.52506125 -0.13863264 -0.0026521385
-0.45686206 -0.014631465 0.013560131
-0.5743005 -0.13730043 -0.03485675
-0.40947312 0.098625034 0.007104963
-0.52990395 -0.062130675 0.0054346174
-0.52658033 -0.03666257 -0.004255384
-0.6009805 -0.15309307 -0.023685545
-0.4576499 -0.013678253 -0.0032019764
-0.4540318 0.09078548 0.0074421465
-0.47208822 -0.017574012 -0.016713902
-0.45009404 0.04373052 -0.024975806
-0.4669336 0.00026298314 0.026753172
-0.408436 0.103531845 -0.011288449
-0.46695438 0.0017950162 -0.021278068
-0.5513251 -0.12948167 0.017463177
-0.5400181 -0.065111235 -0.012868211
-0.41516513 0.06085006 0.0037032813
-0.49684045 -0.03963127 -0.029982284
-0.4395815 0.026298918 0.014998212
-0.46381775 0.06197539 0.01191707
-0.48941052 -0.050493352 0.02172631
-0.43548572 0.0239349 0.0010610223
-0.49060103 -0.023199558 -0.027168855
-0.53053784 -0.105444536 -0.03385313
-0.44168305 0.07433375 -0.031864837
-0.46584058 0.08031925 0.0001835376
-0.5515341 -0.10167838 -0.026203007
-0.47293487 -0.021990731 -0.015324354
-0.5214024 -0.10660168 0.014217302
-0.44258744 0.10402344 -0.025515571
-0.5705167 -0.1661334 0.006390497
-0.5063074 -0.03879895 -0.022956207
-0.46232152 0.057651572 0.015780076
-0.45372963 -0.011048555 0.012602255
-0.4944033 -0.076160885 -0.010213196
-0.45753515 0.018608414 -0.019898117
-0.44474828 0.1092335 -0.022766441
-0.5117172 -0.04495354 0.016062453
-0.5763012 -0.18361789 -0.0029422343
-0.4781108 0.028263956 0.0140939355
-0.4728856 0.014847919 -0.02522163
-0.4435421 0.020904787 -0.006032318
-0.5596203 -0.11394182 -0.028517365
-0.59285784 -0.18155402 -0.050857812
-0.55568135 -0.11615436 -0.03236237
-0.5132578 -0.05649227 0.020415187
-0.5582501 -0.16278052 -0.03381361
-0.57238466 -0.18307368 -0.03845632
-0.5651931 -0.18930879 -0.013498083
-0.43840116 0.044986747 -0.013044044
-0.5032984 -0.020066723 -0.016660407
-0.5496921 -0.10113748 0.0044551343
-0.5163655 -0.044232465 -0.018472582
-0.47740698 0.008452855 0.02517198
-0.44803882 0.08284417 0.018029973
-0.5571099 -0.17054643 -0.0046117604
-0.56791204 -0.15617281 0.011828288
-0.48718625 -0.011280142 -0.02454245
-0.44232693 0.07365936 0.028963
-0.44518715 0.044951722 0.024890289
-0.50333905 -0.0658879 0.024055958
-0.46919796 -0.013612539 -0.015666544
-0.45740086 0.07879108 0.010064125
-0.53601736 -0.10764992 0.022567227
-0.4472559 0.09382086 -0.023399234
-0.5428219 -0.075987235 -0.0012516528
-0.558358 -0.13174582 0.011072472
-0.46548152 -0.022156842 -0.0072150677
-0.43910098 0.031743035 0.016220093
-0.4458301 0.0562962 -0.02693215
-0.4707672 0.050905444 0.010203555
-0.44154337 0.057370424 -0.022877514
-0.54231256 -0.13544919 -0.03089659
-0.52548474 -0.11965537 -0.02101089
-0.48710477 -0.012779117 0.02579403
-0.42504042 0.061729446 0.013370335
-0.51958996 -0.034846276 0.0023228973
-0.47633648 -0.01933936 -0.020367041
-0.5548719 -0.089513525 -0.016693577
-0.53347564 -0.123398505 0.011945695
-0.4833609 -0.02412881 -0.025433078
-0.5257051 -0.08659935 0.02270107
-0.55508196 -0.101499476 -0.023841232
-0.46033522 0.05311627 -0.02272275
-0.5435679 -0.1329379 0.012467951
-0.47700995 -0.047055505 -0.0066533387
-0.521962 -0.06643175 -0.025810182
-0.5293356 -0.08637089 -0.03168887
-0.5989682 -0.1520994 -0.03073074
-0.5810857 -0.15643412 -0.0005302578
-0.42004517 0.074952886 0.007582262
-0.45167285 0.011622354 -0.009948567
-0.5119659 -0.023052953 0.0043857247
-0.47272697 0.010697901 -0.026799485
-0.55512697 -0.1320365 0.014701769
-0.4171557 0.05457075 0.004831776
-0.5477115 -0.15928 -0.024293423
-0.58480716 -0.1652933 -0.04862751
-0.4219597 0.07587949 0.011584401
-0.6047222 -0.17581198 -0.044869915
-0.4724565 -0.024416 0.021121368
-0.49184734 -0.055629402 -0.01815772
-0.44145298 0.021384835 0.014796838
-0.48658496 0.028225154 0.0049925447
-0.43434197 0.036694303 -0.0043548048
-0.58998114 -0.13704152 -0.020207822
-0.41701078 0.10168644 -0.019556925
-0.5883771 -0.18372254 -0.014167875
-0.40855247 0.07632436 0.002759844
-0.57529014 -0.11545024 -0.019870132
-0.5133354 -0.07028371 -0.03365338
-0.51398057 -0.07473855 -0.032027066
-0.51834065 -0.09594013 -0.025675386
-0.48860496 -0.052124716 -0.01649338
-0.475599 -0.041987523 -0.0077747405
-0.5909487 -0.18247798 -0.029394135
-0.51368666 -0.052588098 -0.024292693
-0.4408905 0.009203419 0.010244206
-0.5952909 -0.18037648 -0.04374729
-0.556322 -0.1273063 0.010951281
-0.4694648 0.08466127 -0.005979523
-0.5774134 -0.17219317 -0.04953739
-0.43000925 0.09547865 -0.030314535
-0.5357618 -0.052591085 -0.009289339
-0.58751386 -0.12941954 -0.02154021
-0.4253437 0.04275445 0.0086321235
-0.46240243 0.018348143 -0.025001645
-0.57222074 -0.15696403 0.009287968
-0.6032073 -0.1597331 -0.034034595
-0.45250255 0.04190214 0.029750109
-0.5446118 -0.11414196 0.016698167
-0.5513762 -0.08545893 -0.005525321
-0.614116 -0.1700432 -0.028994396
-0.5634903 -0.17298612 -0.034137532
-0.4847471 0.011692509 -0.017478943
-0.5745161 -0.14513114 0.0006529689
-0.57963145 -0.17966846 -0.04803072
-0.551495 -0.108562656 0.0063825995
-0.43165898 0.057810344 -0.012467131
-0.5424542 -0.15468521 -0.021028116
-0.57531655 -0.1900435 -0.032567784
-0.49117476 -0.077435635 -0.006073892
-0.50767386 -0.047355287 -0.026036292
-0.5707092 -0.1890855 -0.03352107
-0.44466543 0.09844425 0.013534248
-0.45028847 0.053719163 -0.030388594
-0.5556755 -0.18271591 -0.020657033
-0.4532624 -0.020181067 0.008759096
-0.51734364 -0.03051442 0.002484113
-0.48025703 -0.026676469 0.025789618
-0.51588523 -0.12594953 -0.007399097
-0.5434501 -0.09065831 0.005714923
-0.4930185 -0.05848021 0.020485014
-0.5016633 -0.107683875 -0.001606077
-0.47140408 -0.047862664 0.010343015
-0.43524903 0.056321844 -0.0155560225
-0.4588834 0.10333204 -0.004316196
-0.512389 -0.013673112 -0.0009561032
-0.5377685 -0.093410976 0.013264552
-0.4017558 0.11285919 -0.008956939
-0.4956316 -0.007928483 -0.017011046
-0.5485326 -0.14039291 0.010637701
-0.45172825 -0.0011645108 -0.0033469498
-0.5469581 -0.12689644 0.018382788
-0.5654292 -0.19136776 -0.02664876
-0.44256207 0.06131263 -0.026027724
-0.5687705 -0.13018723 -0.00094750524
-0.54415137 -0.16850632 -0.015654907
-0.51075685 -0.07146708 -0.030261338
-0.41685307 0.09068402 0.012263656
-0.44358304 0.08798399 0.02014856
-0.47334692 0.010046467 0.02871205
-0.4632597 0.06916387 0.008772939
-0.5981988 -0.17896913 -0.032963485
-0.51423097 -0.011409484 -0.0041179806
-0.5361029 -0.1473102 -0.001499325
-0.53072786 -0.080510795 -0.027481765
-0.41097134 0.08032897 -0.0019300282
-0.49999136 -0.010724269 0.010852471
-0.44781598 0.059780657 0.030284643
0.032233104 -0.14724761 -0.40837562
0.013442367 -0.19000058 -0.40500513
-0.061951295 -0.34782723 -0.42894286
-0.09167799 -0.38925284 -0.4324239
-0.12166551 -0.3776096 -0.47024453
-0.1295254 -0.3984617 -0.47530156
0.04450971 -0.08248377 -0.4089647
-0.050327152 -0.32711864 -0.42721868
-0.13629049 -0.40251985 -0.43984866
-0.11390117 -0.38054955 -0.41321477
-0.07912572 -0.3299871 -0.4567231
-0.04832843 -0.30551207 -0.4363231
-0.1286868 -0.39114395 -0.41704142
-0.12735891 -0.38213798 -0.42030373
0.025868773 -0.12922904 -0.4482914
-0.08617395 -0.37920356 -0.42873567
-0.030102357 -0.19283257 -0.41423494
0.018889934 -0.17284058 -0.43308416
0.03689365 -0.15619744 -0.4223752
-0.12154594 -0.37333658 -0.4673229
-0.02733782 -0.25749367 -0.39994752
-0.1328176 -0.3979087 -0.47890472
-0.050337777 -0.2225154 -0.42055315
-0.09564309 -0.3470001 -0.46509242
0.028790697 -0.13000664 -0.44474116
-0.11691168 -0.35019436 -0.4256993
0.022018522 -0.16112697 -0.40357736
0.020687982 -0.18631665 -0.40962356
0.027487874 -0.13825825 -0.44184488
-0.13382263 -0.40371424 -0.47325766
0.0118573755 -0.12018738 -0.44846788
0.045066833 -0.12142129 -0.4316941
0.017552197 -0.19029218 -0.40832466
-0.11085273 -0.3229952 -0.43334675
-0.07069664 -0.2572895 -0.4312675
-0.013932928 -0.25951818 -0.41049433
-0.055465832 -0.3253057 -0.41483194
-0.045976624 -0.26443487 -0.39402103
-0.087777644 -0.29584005 -0.43952936
-0.1105226 -0.3828887 -0.41684607
-0.13292393 -0.37330177 -0.43089712
-0.022978447 -0.21662232 -0.39417362
-0.011036202 -0.24835974 -0.40781894
-0.10885994 -0.3807038 -0.46230826
-0.05329115 -0.259704 -0.4043589
-0.120588616 -0.34572476 -0.43198556
-0.02849789 -0.27307102 -0.4318776
-0.07342626 -0.31474996 -0.3973563
-0.107226446 -0.3648284 -0.40765056
0.02295664 -0.17953613 -0.42521873
0.009371489 -0.11170633 -0.41400778
0.043800652 -0.13051951 -0.4154391
-0.09871094 -0.35115317 -0.40560856
0.05417201 -0.099840105 -0.41981065
-0.025546 -0.26293996 -0.43397796
-0.019846395 -0.14584914 -0.4279927
-0.048554055 -0.26309347 -0.39749414
0.009417951 -0.1544134 -0.4528793
0.040920973 -0.1449702 -0.42388898
-0.138442 -0.4014786 -0.42351592
0.0028968453 -0.09774288 -0.42825127
-0.0071465224 -0.15054551 -0.41155463
-0.13360687 -0.37637717 -0.46235693
-0.04696688 -0.30997482 -0.41192102
-0.0295192 -0.21072634 -0.4412018
0.022740558 -0.09995273 -0.40574032
-0.07285383 -0.3622356 -0.42580864
0.004312709 -0.13428187 -0.4446395
0.049907595 -0.09832248 -0.4385167
-0.0038511604 -0.13359642 -0.43786907
0.026580125 -0.1231096 -0.39957678
-0.06596368 -0.27855578 -0.4450178
-0.019838005 -0.17290634 -0.42195565
-0.1170883 -0.33407065 -0.4435018
-0.02040881 -0.24982046 -0.43528283
-0.02994433 -0.22534887 -0.3971256
-0.08095722 -0.29014796 -0.4182789
-0.050043 -0.23486383 -0.41380298
-0.06752712 -0.26161483 -0.41868702
-0.073745 -0.33892426 -0.41092202
0.0052185506 -0.081527345 -0.43598592
-0.038217083 -0.24414435 -0.39623892
-0.033349633 -0.22483438 -0.44375354
0.015063435 -0.19467998 -0.40766907
-0.08286944 -0.35983238 -0.44520503
-0.00399518 -0.14130247 -0.4223677
-0.05147656 -0.28470004 -0.39579993
-0.021658093 -0.2604635 -0.40531847
-0.009665281 -0.20660588 -0.39278042
-0.062912345 -0.23621145 -0.42695346
-0.027758628 -0.2535413 -0.4412558
-0.0724729 -0.29933834 -0.45155203
-0.09736617 -0.3363825 -0.41185576
-0.10154982 -0.37051767 -0.4597461
-0.014394179 -0.23760137 -0.4008828
0.013678893 -0.1687922 -0.39895868
-0.07514711 -0.34772617 -0.41537753
0.02052331 -0.12495483 -0.45627186
-0.072734624 -0.28584078 -0.4441852
-0.02511929 -0.27531847 -0.42707014
0.0032906532 -0.18475705 -0.39547688
-0.07430327 -0.2573508 -0.42876977
-0.12047586 -0.39903834 -0.46526027
0.014484793 -0.14090304 -0.45446357
-0.035464928 -0.28391364 -0.43372852
0.007898077 -0.18487689 -0.43864548
-0.06795392 -0.2756903 -0.44218642
-0.028741732 -0.27713564 -0.43002266
-0.003563732 -0.14299136 -0.4404432
-0.121047586 -0.33317208 -0.44048887
-0.054111056 -0.2891906 -0.3963315
-0.08725408 -0.35993716 -0.44987005
-0.11406328 -0.39548063 -0.42357513
-0.08340436 -0.356316 -0.41547537
-0.13856518 -0.40141898 -0.45311266
-0.011246771 -0.21819529 -0.39579558
-0.070124105 -0.3451904 -0.41702777
0.0040829033 -0.1749706 -0.39322394
-0.09267227 -0.31533954 -0.44738606
0.0070561767 -0.13713819 -0.44756934
-0.03459142 -0.25414687 -0.39327878
-0.02359052 -0.250409 -0.39962733
