0.3611888 0.074091546 0.13272281
0.52821034 -0.058429897 -0.09901656
0.26303473 0.11365459 0.3456678
0.31017768 -0.11616292 0.28327006
0.46843794 0.12474354 -0.019909278
0.360539 0.1455858 0.19486655
0.49923548 -0.12889539 -0.10619344
0.30568382 0.16074714 0.30794972
0.30766395 0.26349726 0.39194095
0.44576877 0.2721204 0.14713693
0.4456187 0.1390391 0.25356743
0.4002239 0.17163399 0.14461768
0.46978763 0.2072027 0.047932543
0.4400071 -0.024835385 -0.09553301
0.45664456 0.0015587285 -0.103406146
0.27633932 0.003954552 0.1618718
0.38491273 -0.10140587 0.15939863
0.40000266 0.17991054 0.15207838
0.25835884 0.15049198 0.38561344
0.34032378 -0.021727324 0.08912194
0.54474616 0.23568055 -0.06464833
0.37720597 0.03978511 0.074227855
0.5374521 0.025322914 -0.0110614
0.36582246 0.021423161 0.29898044
0.39867336 0.1920864 0.38451082
0.5791896 0.11280513 -0.012678146
0.43599522 0.17535833 0.3021047
0.32836196 0.23879912 0.33309177
0.43837872 -0.14936212 0.02089034
0.3437885 -0.04679902 0.28104332
0.4749674 0.14184335 -0.017251372
0.4411623 -0.14346527 0.020835727
0.46783063 0.20886734 0.052925035
0.4153049 0.1824404 0.1262961
0.48864996 0.1591653 0.19215947
0.44959038 -0.015875906 -0.12702425
0.37230933 0.16064283 0.18621379
0.4780802 0.07271981 -0.12437114
0.3050533 0.30633587 0.40034318
0.34035107 -0.015780121 0.31376675
0.26842496 0.22437629 0.4010827
0.34606302 -0.08429629 0.058717348
0.28112215 0.0010703802 0.43627584
0.41610706 -0.119084716 -0.09883252
0.61367416 0.12825614 -0.09588726
0.49278355 0.20455688 0.0036900192
0.2367959 0.029558621 0.32187372
0.39418393 -0.20372905 0.055228367
0.6065611 0.20720485 0.01783292
0.43034664 0.13092738 0.27453542
0.45368198 0.0076485053 -0.092804685
0.40438133 0.059037924 0.26064944
0.5098849 0.0737769 -0.12687704
0.34966642 0.059960745 0.14171258
0.40408802 0.17538312 0.14075907
0.2912874 -0.08007038 0.34853375
0.36596733 0.26950845 0.29061398
0.5726838 0.06324752 -0.04305336
0.47228402 0.27662045 0.3076047
0.43423712 0.009281494 -0.05590935
0.45753026 0.28486288 0.32273096
0.27253777 -0.066476524 0.3943578
0.43470508 0.08553207 0.2278728
0.2717208 -0.058534406 0.2164188
0.3284719 -0.020390049 0.06464285
0.34755576 0.106716275 0.40505487
0.6261698 0.18540233 -0.03655839
0.4820745 -0.037214056 0.03672862
0.47687078 0.037215948 0.10969011
0.3875547 0.04958058 0.06368458
0.42713848 0.021370739 0.18698303
0.39472508 -0.0440974 0.19034512
0.5039694 0.2397303 0.013256073
0.3700328 -0.039797947 -0.040194035
0.2972641 -0.048247293 0.17855197
0.50519645 0.195135 -0.027007118
0.3570732 0.3144872 0.34520292
0.5208579 -0.030563548 -0.028412908
0.5916884 0.1591773 0.004038915
0.33227557 0.1144183 0.43952078
0.2963611 -0.0053950995 0.13495597
0.39044726 0.220891 0.20446566
0.48255846 0.00082591176 -0.11792368
0.4940812 -0.13430049 -0.067971215
0.3500326 0.025829926 0.3315674
0.32810223 -0.10711997 0.25825307
0.35368493 -0.18998018 0.14089528
0.40812722 0.30899438 0.43350756
0.42915732 -0.052098766 -0.1206011
0.47809193 0.25458726 0.29279518
0.42877322 0.29577565 0.41796073
0.2564217 0.19882378 0.40872616
0.41202357 0.1817815 0.13172546
0.3264148 0.100689225 0.21889198
0.48927808 0.2615198 0.27828193
0.3950439 0.265652 0.45386088
0.43584627 -0.00943917 0.14481497
0.51795816 0.13431618 -0.10216309
0.32536998 -0.06120207 0.30239213
0.5079913 0.17954975 -0.04539837
0.5165629 -0.07581779 -0.09246358
0.32494056 0.045131788 0.39383832
0.23804414 -0.09676114 0.43151617
0.58878314 0.19680801 0.04142794
0.2528722 0.0044867396 0.30456614
0.48520726 -0.038744256 0.029704079
0.34338024 -0.12484367 0.21524645
0.52917314 0.1540972 0.113849804
0.24405181 -0.051106185 0.27327114
0.5511502 0.11492804 0.040327117
0.47553402 -0.004736364 -0.10984069
0.55851996 0.04932326 -0.029064626
0.32105562 -0.11959064 0.2604863
0.48139882 0.036798596 0.101066805
0.5058571 0.15837544 -0.059555247
0.41604304 -0.03617605 -0.061447904
0.42619509 -0.0011803284 -0.050145864
0.42607114 0.016653776 0.18491001
0.44296172 -0.03436356 -0.10694207
0.30654395 -0.0865556 0.1289462
0.34928226 0.070361964 0.15128222
0.2819901 -0.038775712 0.21451539
0.3701891 -0.097497866 0.003411308
0.58171344 0.038734183 -0.08722179
0.53266203 0.008577734 -0.016592786
0.3327505 -0.1450582 0.21741934
0.3172713 -0.031707093 0.34232694
0.32523465 0.23613217 0.33652782
0.34480608 0.016733162 0.11373011
0.6086384 0.10735753 -0.104511306
0.4017076 0.30740714 0.2576714
0.42478454 0.22592774 0.36568987
0.49859136 0.07934196 0.10594936
0.505039 0.2602429 0.028792553
0.5515639 0.037659287 -0.026308984
0.31279194 0.012740761 0.38840252
0.2817438 -0.06177096 0.3815612
0.35517067 0.09669131 0.3826038
0.43501392 -0.18822496 -0.0061012655
0.35706672 -0.112371504 0.20089127
0.44164497 0.1260533 0.0301269
0.43893108 -0.0031349808 0.14455771
0.64434946 0.19049186 -0.09883185
0.434772 0.21756768 0.3403265
0.4847244 0.111751944 0.15890141
0.42621118 0.29409122 0.20157853
0.37361848 -0.014896125 0.0341558
0.37523073 0.224583 0.23539634
0.25597978 -0.01761172 0.28005067
0.3077355 0.011406712 0.17687336
0.41379833 -0.07883672 -0.06030102
0.35722625 0.0890384 0.37232566
0.28307456 -0.01958564 0.22889715
0.3552773 0.051314272 0.1240959
0.4225352 0.004637502 -0.038503185
0.5752896 0.04242803 -0.09898208
0.51948833 0.09788185 0.083602466
0.38213563 0.085374214 0.10409725
0.36711133 0.11756944 0.15897933
0.31754026 0.26973566 0.40053898
0.35680658 0.19397512 0.24293897
0.31701833 -0.06959905 0.12427923
0.3656563 -0.04100512 0.24605641
0.39333668 0.067668624 0.06854988
0.3572202 -0.13788004 0.17886198
0.3434298 0.096482284 0.1842385
0.5362885 0.16929084 -0.12744384
0.39684868 -0.21502438 0.040732354
0.2589499 0.11992673 0.35847378
0.49247676 0.17365304 0.19752488
0.55127025 0.05424206 -0.011634052
0.34173185 -0.021287069 0.30655038
0.40364337 0.013745457 0.22337972
0.44554642 0.04561898 0.17404771
0.28733018 0.22094493 0.39719987
0.2683505 -0.016923994 0.25805014
0.4199596 0.27324077 0.41483936
0.4036528 0.1996997 0.38191038
0.43328577 0.08822308 0.013134643
0.63297653 0.20158105 -0.055065513
0.24946791 0.033933796 0.30246717
0.48536032 0.124615185 -0.050916135
0.33396164 -0.11156659 0.24376352
0.34609756 -0.069517925 0.071254596
0.31148332 -0.08322005 0.12277171
0.53034294 0.0038087368 -0.016424626
0.32873577 -0.020513266 0.058037937
0.46916175 0.09088931 -0.050095543
0.36459103 0.009595841 0.29114467
0.41642743 -0.055102095 -0.078286424
0.39418536 -0.17213105 0.08216679
0.42067477 -0.13469043 -0.12047812
0.276796 0.24014428 0.40675664
0.35852554 -0.062767744 0.2405207
0.48623645 -0.062252805 0.007781118
0.2905598 0.2641399 0.41690236
0.5204457 0.15812933 0.13322261
0.4015736 0.29713187 0.24915512
0.5999011 0.14873421 -0.019860014
0.39423263 0.050262816 0.052073553
0.25128728 0.051039256 0.3137297
0.5203734 0.23255605 0.19681208
0.36304492 0.16171995 0.20404747
0.41421115 0.11721471 0.29230443
0.33119288 -0.11598128 0.24505475
0.5109738 0.22303718 -0.013765678
0.400491 0.24987823 0.43046638
0.5243537 0.18342155 0.1476518
0.41323346 0.10573104 0.28429833
0.4521433 0.091189116 0.20085679
0.33927682 0.042198844 0.14553814
0.43932727 0.14564842 0.27068973
0.41088396 0.30529273 0.4562804
0.52556103 0.24679962 -0.020139217
0.58443546 0.12318015 -0.01341033
0.3601085 0.26853228 0.30047894
0.62077415 0.15147704 -0.055632293
0.38123783 0.16995853 0.39747852
0.49342242 0.23988894 0.032648295
0.29064363 0.27089375 0.40769076
0.42571598 0.111808635 0.047065258
0.2719701 -0.15265802 0.32191437
0.3156017 0.26335302 0.37732488
0.35712132 0.11842054 0.397569
0.32402566 -0.01831378 0.12442826
0.2727241 0.21486127 0.41922978
0.3829943 0.18059254 0.40333825
0.2199643 0.1417963 0.39663216
0.4711602 0.18918306 0.24968654
0.4744913 0.2200805 0.26994818
0.3094708 -0.052052073 0.3392228
0.315965 -0.0039178953 0.14878167
0.48562318 0.03352897 -0.10201517
0.29938835 0.16736722 0.32508853
0.44914067 -0.18399262 -0.028285772
0.24713692 0.017760433 0.29293346
0.48105496 0.20854917 0.24813232
0.321689 0.15496758 0.2737992
0.37729287 0.1400578 0.15956351
0.34793168 0.27007434 0.32402653
0.32734072 0.17572725 0.28118014
0.29507422 -0.00020205975 0.40971678
0.50411713 0.046311215 -0.12370345
0.3773433 -0.08234358 0.0032697618
0.37316668 0.20227545 0.22014514
0.4079802 -0.11939667 0.101941995
0.5355943 -0.04352452 -0.09978975
0.37573022 -0.076953046 0.19701326
0.4361485 -0.07067233 -0.12139422
0.4756447 -0.14895187 -0.046801344
0.35095286 0.13260922 0.42092907
0.5220318 0.10239464 0.08280631
0.2831989 0.141635 0.33270806
0.39681727 0.18074644 0.15860713
0.3631916 -0.030638948 0.25939485
0.3069468 -0.010338388 0.14762676
0.27395564 0.10889388 0.32166898
0.24795999 -0.022194847 0.2907858
0.24030662 0.104730904 0.41297874
0.4402035 0.24111712 0.35048825
0.45951226 0.057657927 0.15881303
0.28710765 0.019517541 0.44107574
0.36991918 0.10357609 0.14192168
0.43038368 -0.053192914 0.117483504
0.24145013 0.1403532 0.42081228
0.23042817 0.010171801 0.35039234
0.42129016 0.24083129 0.1651531
0.3678007 -0.04166922 0.24157482
0.4131202 -0.09801115 -0.07541138
0.24166733 -0.11485973 0.40946966
0.3503803 -0.055325456 0.26173803
0.6253023 0.15130222 -0.09746878
0.31024855 -0.0128637925 0.18501318
0.32381034 -0.01821322 0.08469498
0.34441715 -0.00501357 0.09589859
0.4492092 -0.16151108 -0.009242773
0.34688854 0.11444411 0.41286194
0.47505957 0.17728901 0.01280196
0.43407843 0.056345478 0.20413193
0.30193105 0.24570769 0.42066222
0.369658 0.052973054 0.09925349
0.44175258 -0.13871056 0.023811951
0.35518202 0.015623018 0.3134628
0.3589648 -0.05158858 0.06304805
0.516657 0.19588307 0.17232966
0.3052381 -0.17704915 0.24037628
0.62500894 0.15629601 -0.09267534
0.3360824 0.05448874 0.1618492
0.5510489 0.15195674 0.0720834
0.41721037 0.050594747 0.23002702
0.47679123 0.26856726 0.0874657
0.5375639 0.22967756 -0.056653023
0.3205858 -0.06411431 0.3086442
0.5328784 0.090973884 0.053264603
0.28434277 -0.146345 0.30470657
0.39132813 0.062047243 0.28704822
0.51313835 0.11948654 0.113616996
0.44559866 0.19771737 0.0840102
0.485164 0.048426352 -0.13266973
0.35345793 0.24907386 0.29603112
0.41875064 0.045244418 0.003028959
0.32551897 0.08260974 0.42473665
0.43020633 -0.06948398 0.10391729
0.23080966 0.025215745 0.33546174
0.23600778 0.097416 0.40006074
0.3528447 0.26433 0.31015852
0.46597207 -0.12169303 -0.005899325
0.5120615 0.24566165 0.0035384148
0.3145288 -0.08020325 0.30598557
0.33105543 -0.06669624 0.28732702
0.41095975 -0.07973066 0.13032182
0.44467765 0.18235078 0.2922139
0.41385248 -0.046920724 -0.12812953
0.40196657 -0.02291505 0.19518384
0.2965563 0.21368314 0.4028731
0.5318748 0.21699527 0.16254517
0.5673925 0.15796825 0.047368184
0.26141995 0.02641984 0.27423823
0.37907124 -0.17579696 0.106636986
0.4232215 0.1070702 0.047579743
0.5703716 0.21112666 0.0872527
0.42225894 -0.06418626 -0.09679285
0.3116792 -0.011083096 0.15049756
0.35525575 0.17195466 0.4466194
0.5955566 0.1230039 -0.03386596
0.47232628 0.20683882 0.2626111
0.26680335 -0.09568066 0.3799279
0.34297422 0.04913947 0.36432892
0.3837166 -0.008685142 0.24063784
0.43415576 0.030903481 -0.03732547
0.46748367 0.17098826 0.021262147
0.5675514 0.21641338 -0.10357733
0.28056005 0.25577858 0.39994556
0.5356103 0.15475555 -0.10499297
0.33792615 0.1878787 0.45841748
0.5485451 0.09761578 0.030322745
0.431404 0.076911055 0.0069256574
0.51592517 0.17322257 0.1543451
0.5459342 0.2036191 -0.12134622
0.4868986 0.06512521 0.11517696
0.34772244 0.28283647 0.33528978
0.5025676 0.16966775 -0.04392107
0.31794253 0.099194646 0.4527105
0.26066637 0.009503663 0.2946128
0.3507083 -0.13205041 0.19572203
0.42511564 -0.09701802 0.089736
0.29084176 -0.012653589 0.22062592
0.23352143 0.1060863 0.4244423
0.28675413 -0.05760093 0.18976638
0.2950579 0.21878996 0.3768392
0.41900933 0.28272003 0.20503259
0.30907553 0.2403121 0.3695955
0.4415564 -0.16597074 0.0009275973
0.38475809 -0.124344766 0.14012283
0.5197275 0.070847735 0.060115963
0.50386506 0.07608339 0.093542166
0.5034927 0.044392154 0.06720158
0.4648605 -0.1301059 -0.011042729
0.23790511 -0.13754909 0.39699346
0.34572208 -0.1026694 0.22987683
0.24328837 -0.045681253 0.27929044
0.35302252 -0.06439964 0.06297476
0.49068028 0.18088391 0.20697021
0.3715243 -0.053721063 0.03829833
0.35336488 0.19867912 0.2532336
0.40236622 0.23397782 0.41348565
0.4711844 -0.0041341037 -0.12791933
0.35840178 0.07958143 0.1424922
0.25150356 0.15514342 0.4222272
0.40913087 -0.02747611 -0.04140973
0.5643986 0.044473678 -0.043932855
0.36260736 -0.041188218 0.25146708
0.47875622 -0.005187534 -0.11610857
0.440435 -0.18660522 -0.014618203
0.383924 0.13833877 0.3656144
0.42758876 0.07237328 0.01002261
0.4600519 0.14430228 0.012078375
0.2152004 0.114607245 0.41441518
0.44582778 0.11524245 0.2328962
0.28754386 0.038014345 0.23642601
0.5407673 -0.040048435 -0.10627104
0.2989 0.031814486 0.43002948
0.32797223 0.006386794 0.13564442
0.3103811 0.101571195 0.24891871
0.37348837 0.153602 0.39768183
0.5385721 0.19032022 0.12757339
0.5218461 0.21326965 0.17767927
0.3708117 0.11392382 0.36873865
0.3452341 -0.020480819 0.081219345
0.44089425 -0.10133012 0.05725038
0.46139944 -0.022254527 0.087232575
0.3402481 -0.03599248 0.29672134
0.47810212 0.013747573 0.087432325
0.39222038 0.30054873 0.2691459
0.52803856 0.015485615 -0.002261296
0.42575723 0.28302163 0.4125932
0.32598692 0.27713397 0.40353486
0.43371588 0.23362294 0.13631988
0.5379046 0.08839393 0.041887805
0.32501692 0.001457192 0.13683721
0.3538622 0.16513425 0.44334853
0.34083974 0.30159044 0.36384636
0.3956256 -0.10268487 0.13874824
0.60184073 0.16314086 -0.011118144
0.38919467 0.16175792 0.37595868
0.27881712 0.19790584 0.3886859
0.35847694 -0.07311824 0.045582265
0.3172204 -0.008666001 0.14244118
0.41961443 0.1686559 0.106674686
0.5236998 0.097735405 -0.11041409
0.2523995 -0.10903425 0.3948414
0.39589822 -0.1072848 0.13432845
0.2923192 0.058506884 0.24517938
0.40758598 0.2895816 0.45136398
0.5950861 0.13331357 -0.024216563
0.41275468 0.07759088 0.26117972
0.298723 0.0068746135 0.1894645
0.3976974 0.041866004 0.25821212
0.24994719 -0.046882033 0.45231098
0.31530702 -0.04945668 0.14457753
0.3559158 0.10002007 0.16445754
0.4680729 -0.000329718 -0.102797166
0.40168512 -0.0283788 0.19103925
0.41643327 -0.08554462 0.11537097
0.5652406 0.012518138 -0.10613598
0.56117094 0.083361596 -0.0048832893
0.22292742 0.03485296 0.3517093
0.4065398 0.27778643 0.22359344
0.49492466 0.23781255 0.028135084
0.43812186 0.11752274 0.02928619
0.21727376 0.0315367 0.3718831
0.45094392 -0.095350586 0.043999597
0.5233842 0.22974154 0.18891522
0.4309167 -0.021680266 0.14337859
0.4940732 0.088959344 -0.09722522
0.4979412 0.23360723 0.019041836
0.2969786 0.22440988 0.37812397
0.40674004 0.21603248 0.17057528
0.32899645 0.17007688 0.45954347
0.43087137 0.24496147 0.15118091
0.29932922 0.011330612 0.19215691
0.45707273 0.12737805 0.0030878931
0.47540525 0.18208712 0.016261771
0.34864742 0.1765837 0.24300793
0.5064291 0.062594384 -0.12608293
0.33046845 0.09056548 0.20285898
0.5534203 0.18180174 -0.10266377
0.35683784 -0.16165635 0.15928797
0.30543476 0.09072348 0.24870099
0.4500755 -0.14229348 0.0055607855
0.30743116 0.03452626 0.41676506
0.33870924 -0.0106505975 0.10151406
0.29041556 0.0076615736 0.20530348
0.41367823 0.098502785 0.27732337
0.38424152 0.01119826 0.037008435
0.28467828 0.17265525 0.3564554
0.42118073 -0.014509715 -0.05235538
0.4479678 0.23572692 0.33171612
0.5449818 0.06474364 0.00880149
0.3703009 0.21065375 0.45214504
0.3044005 -0.08590615 0.31961572
0.5413574 0.015072793 -0.026931286
0.390153 0.24537542 0.44550276
0.4532984 0.19287702 0.28544873
0.5762015 0.1789374 0.049163118
0.4752125 0.21187589 0.26163602
0.32540917 0.109434724 0.44780856
0.3203271 0.14413518 0.26704988
0.41793126 -0.20876378 0.007577032
0.35683858 -0.16740151 0.15438819
0.54980594 0.16849495 -0.10149489
0.5664542 0.011997446 -0.07537587
0.29958165 -0.020785227 0.38393742
0.4405989 -0.0062536597 -0.12464215
0.5927541 0.19340256 0.03127411
0.24395166 0.019078784 0.28587735
0.3362902 0.010900594 0.12430572
0.5422857 0.22397387 -0.07013732
0.4479488 0.21227318 0.09212981
0.5617454 0.052918226 -0.03188856
0.28761178 0.09082534 0.2813296
0.33792835 0.0050299913 0.33593327
0.2407942 0.020553239 0.26473436
0.46595728 -0.0726131 0.035974115
0.41296476 0.29957405 0.23043907
0.3743964 -0.0091710985 0.25724065
0.308807 0.2516775 0.4131979
0.34336329 0.18445699 0.4573763
0.2896007 -0.0022381917 0.20245945
0.25392562 0.014421187 0.22478971
0.38394016 -0.0040061623 0.2442191
0.4305353 0.2806497 0.18222296
0.42918825 -0.1308425 0.053460747
0.5072076 0.13527107 -0.1244082
0.3308723 0.16276291 0.26367843
0.48117882 0.22433761 0.04174368
0.39348257 0.07858459 0.07759067
0.4710468 -0.0006994605 0.08799639
0.38644508 0.09424323 0.32341474
0.29835498 -0.11827697 0.30305392
0.51456565 0.24258527 0.21596718
0.41086015 -0.13586092 -0.103556275
0.33874547 0.14958954 0.2380715
0.54780173 0.22897452 0.14367895
0.5052213 0.24264264 0.23307727
0.57862484 0.20246533 -0.12298955
0.3464911 -0.10837227 0.22361037
0.42696723 0.03224978 0.19657136
0.4121595 -0.0950137 -0.07110156
0.49809083 0.105709374 0.12934461
0.45149964 0.2453663 0.113862336
0.3937879 -0.20946598 0.051060066
0.32514828 -0.18099852 0.2006563
0.3907376 -0.028747588 0.21071312
0.26116347 0.12580466 0.3594438
0.32433727 0.22246677 0.32651487
0.40289155 0.30372465 0.2523699
0.3915698 0.23746577 0.21654807
0.59741867 0.075270206 -0.08783157
0.24848822 -0.08274917 0.4243939
0.45887533 0.2584367 0.3311636
0.28211525 -0.044014156 0.3960227
0.42430443 0.14074564 0.07431481
0.49134043 0.21291623 0.013452232
0.43051645 -0.021709345 -0.075539395
0.32720208 0.21774179 0.31725565
0.33085114 0.004561685 0.12883186
0.39389965 0.106105484 0.10029396
0.36373165 0.15533575 0.4169742
0.54661644 0.2289437 -0.12635693
0.38778362 -0.16721338 0.098048165
0.32033682 0.046823934 0.40368676
0.42666772 0.13747299 0.28683338
0.47017062 0.1229836 -0.0245734
0.6148964 0.12374571 -0.06854458
0.43134958 0.015096344 -0.04567933
0.4670039 0.25034177 0.3094203
0.46264246 0.14096424 0.2241263
0.45341384 0.19067892 0.06373992
0.38962448 0.19977269 0.18796203
0.47096354 0.093698084 0.16863345
0.2845359 -0.00476709 0.42506573
0.6397772 0.19062608 -0.056949407
0.40511447 -0.057816297 0.15967888
0.4987231 0.15773532 -0.047075495
0.3588643 -0.14489459 0.16987939
0.41093844 0.011294104 -0.01165387
0.3176205 -0.017900765 0.35346085
0.4000249 -0.05380352 -0.03020887
0.44080555 0.22042945 0.11212632
0.4216409 0.04331839 0.21573363
0.35693353 -0.10333928 0.022633225
0.2897195 -0.04970672 0.37728506
0.3070385 -0.021679595 0.36955994
0.47292724 -0.17797394 -0.06658442
0.2469911 0.047993876 0.3189773
0.4885735 -0.02489224 0.035368413
0.39443317 -0.07654332 0.16321413
0.28326923 -0.073208004 0.18282232
0.44255355 0.15177947 0.2700265
0.3790852 0.1865117 0.1958984
0.29040208 0.06765059 0.45808876
0.40496793 0.19628 0.15696955
0.37885788 0.26556844 0.26371866
0.53796923 -0.057451203 -0.11600025
0.40279195 0.23029181 0.18994161
0.34523916 0.091983676 0.39672333
0.335453 0.08464785 0.4083365
0.40597546 -0.102680646 0.1198547
0.45008743 0.12395502 0.012923375
0.29655552 0.25069234 0.42242193
0.22122872 0.07427514 0.3884229
0.35200152 0.018178582 0.32144874
0.48660377 0.17488697 -0.010323837
0.6061795 0.09286407 -0.07895924
0.39231515 -0.088766694 -0.029542804
0.6209204 0.13725959 -0.09028019
0.31837827 -0.046175696 0.3279696
0.42234918 -0.0642284 -0.07161285
0.37960654 -0.077875234 0.18914945
0.414742 -0.2045415 0.017000109
0.46631795 0.16393223 0.2369984
0.3463988 -0.045423105 0.09124823
0.37280807 0.15820462 0.4028482
0.3594831 -0.17605183 0.14218435
0.3594369 0.013613977 0.08435725
0.39328402 0.18001756 0.16443671
0.457785 0.0092179775 0.12066595
0.35788953 -0.03412734 -0.0005991906
0.46010247 0.28230894 0.14570786
0.31268427 0.3121249 0.40260273
0.44220677 0.18713972 0.30080843
0.61051846 0.18910873 -0.004821524
0.53169674 0.16101402 0.1151396
0.40324837 0.27093953 0.22376518
0.46492904 0.054854885 0.14653301
0.31478375 -0.08225051 0.11757229
0.32548624 -0.037294425 0.32256395
0.53899896 0.18859103 -0.09430428
0.40624812 0.23534426 0.18793903
0.4055505 -0.13839146 0.09018292
0.36910567 -0.1611941 0.13728312
0.39371252 0.03985977 0.2637773
0.40258244 -0.16937698 0.06918333
0.62271196 0.17021728 -0.043192044
0.48594773 -0.12981713 -0.0492983
0.6294775 0.16585661 -0.09243716
0.59828043 0.15114039 -0.014849573
0.40471298 -0.21889424 0.023074016
0.34274897 0.33211786 0.3863887
0.48664844 0.14239457 0.18151487
0.3507941 -0.09219995 0.043340385
0.47057214 0.05108115 0.13301207
0.41586423 0.025557242 -0.008486509
0.39311436 0.3100911 0.46185368
0.36862415 -0.14572324 0.15135303
0.5890237 0.18022531 0.02685
0.42119372 -0.07702343 -0.07225768
0.3299007 0.20656869 0.30280203
0.54730856 0.20690465 -0.093861684
0.42650187 0.16849485 0.0939621
0.40772468 0.30234593 0.46156263
0.32563758 0.16745076 0.27723315
0.27785572 0.060651146 0.2734155
0.25928968 -0.009418026 0.2809934
0.30879635 -0.12534222 0.27796572
0.43215898 0.111626685 0.25477028
0.28098795 -0.043773666 0.2120838
0.26772267 0.20841536 0.4183344
0.39642403 0.03479643 0.25450945
0.2580378 -0.008844063 0.45959815
0.27621514 -0.13218608 0.3316184
0.45092255 -0.060088247 0.07410395
0.32151145 -0.18058744 0.20764707
0.32964814 0.21573809 0.31108114
0.4067257 -0.118441656 -0.081155464
0.3192809 -0.034014225 0.33669063
0.31242576 -0.05997532 0.14086981
0.5094293 0.19618353 0.18578234
0.4465685 0.12561858 0.24039066
0.44573915 0.17619708 0.28502908
0.41099215 0.015165277 -0.008451298
0.4276939 0.17915869 0.32050174
0.53641677 0.11555871 0.06776564
0.3417362 0.009171918 0.33251226
0.4563671 0.18624458 0.05456692
0.26376122 0.12622675 0.35506064
0.49323273 -0.0990202 -0.036341414
0.33837202 -0.06540743 0.0888648
0.45570478 0.016561016 0.13072492
0.4018394 0.1324091 0.3278482
0.25940105 0.04800286 0.29632643
0.4667226 0.09303934 -0.043808952
0.5350288 -0.007209569 -0.03437473
0.49065402 0.23447633 0.03308805
0.4807649 0.1400187 0.1902316
0.44210255 -0.073452726 -0.11798903
0.3681345 -0.09261206 0.19753061
0.32305565 0.11453273 0.23682839
0.45825267 0.013870649 -0.09584488
0.3254127 0.1298989 0.24562633
0.44857422 0.28769234 0.16200268
0.5598366 0.18852705 0.087218925
0.3365001 -0.13449356 0.21958074
0.30546632 0.11892814 0.2726912
0.5721949 0.018969283 -0.11333294
0.4939621 0.16195494 0.18483889
0.47032097 -0.011984676 -0.12665917
0.45624143 0.07060501 0.17582396
0.29129598 0.0009921417 0.19800948
0.5408225 0.13847077 0.07925668
0.54663885 -0.020579487 -0.10039188
0.4570862 -0.035066694 -0.12776351
0.35072216 -0.037162617 0.2765998
0.51989317 0.050060198 0.042089716
0.42067868 0.12963268 0.2910836
0.46613118 0.08883581 -0.046313107
0.6106218 0.0848704 -0.15972945
0.4954375 -0.18248147 -0.15538487
0.48861235 -0.16260344 -0.11553748
0.638049 0.1897245 -0.18599916
0.4789983 -0.22151399 -0.14821203
0.48043317 -0.19278273 -0.1263351
0.5342519 -0.028371446 -0.18687674
0.6390446 0.14801717 -0.12536071
0.55391383 -0.038634904 -0.1290692
0.5894203 0.05564803 -0.16856512
0.50213623 -0.09548452 -0.18722548
0.66083527 0.21558098 -0.1537783
0.49403834 -0.1689556 -0.15885405
0.61552954 0.10647589 -0.1728994
0.52159286 -0.09669805 -0.17822213
0.57043576 0.05260229 -0.18760917
0.44427872 -0.2458987 -0.10561071
0.64203835 0.16860417 -0.11327402
0.5358585 -0.09641802 -0.14537017
0.49474025 -0.17129567 -0.13413711
0.6529541 0.1574822 -0.1426871
0.48557132 -0.18772067 -0.15872104
0.5156781 -0.14010432 -0.14577188
0.63948506 0.12986612 -0.14164092
0.64543676 0.15262997 -0.13309877
0.49429953 -0.15750739 -0.1777261
0.55224955 -0.029784545 -0.17353892
0.5878419 0.058083966 -0.18093358
0.6393799 0.13474464 -0.13728939
0.58417284 0.010064766 -0.14279492
0.5912874 0.061153084 -0.16728038
0.54947436 -0.030266337 -0.16888273
0.6179881 0.10914886 -0.120054945
0.5602621 0.025026724 -0.18639357
0.4886927 -0.16906568 -0.17782025
0.5988717 0.052074626 -0.15812664
0.61344504 0.1078212 -0.16794646
0.55265427 -0.056845523 -0.15603778
0.48533618 -0.2073047 -0.14766885
0.6255059 0.11479944 -0.15932116
0.5129407 -0.07362435 -0.18695733
0.6344875 0.2278847 -0.15768667
0.50437725 -0.13004196 -0.16237602
0.47834486 -0.18852125 -0.11888881
0.5189972 -0.10920038 -0.16017841
0.5928785 0.057199895 -0.17355615
0.53475416 -0.08102282 -0.15900989
0.641731 0.22012164 -0.1741404
0.5669153 0.013880342 -0.1810616
0.6570796 0.16352803 -0.14506476
0.5892296 0.03104031 -0.13414358
0.64119554 0.19774303 -0.17729771
0.6074845 0.08650014 -0.12018789
0.5506673 -0.06911945 -0.14913325
0.5317308 -0.0943258 -0.15757607
0.4937322 -0.18228891 -0.14166968
0.6599721 0.19593263 -0.12271719
0.641441 0.15949881 -0.17500114
0.58118933 0.02990359 -0.17548695
0.56892717 0.010232687 -0.16987002
0.6095841 0.09090854 -0.16146387
0.6422098 0.22427858 -0.1466236
0.63947713 0.22555469 -0.17172848
0.585425 0.022280827 -0.15791695
0.64195824 0.22439608 -0.15941218
0.5390284 -0.052526794 -0.16307136
0.6296198 0.13049702 -0.16076745
0.64382076 0.12579818 -0.15339546
0.63909245 0.15716666 -0.11764713
0.60184646 0.03875941 -0.15059836
0.5635479 -0.023715287 -0.15809597
0.63204974 0.20201388 -0.18742725
0.53821933 -0.07359218 -0.15901203
0.5319626 -0.07657368 -0.17639154
0.58571684 0.21921211 -0.12007353
0.5330783 -0.09729407 -0.14104094
0.5192709 -0.1287033 -0.14261098
0.62294406 0.20626597 -0.18188691
0.6109443 0.23887882 -0.13075988
0.5398786 -0.059481315 -0.17781454
0.6638947 0.2076895 -0.11985518
0.6611941 0.17013934 -0.14694022
0.6519924 0.15122068 -0.14626981
0.5880137 0.06705171 -0.18273932
0.55182356 -0.02295018 -0.16693404
0.63240623 0.17495601 -0.1854354
0.5337008 -0.07163351 -0.17535323
0.61867344 0.10859865 -0.17682984
0.45581818 -0.2431557 -0.124341115
0.65843785 0.17655149 -0.13644077
0.6726936 0.21004343 -0.1567553
0.64946645 0.22088993 -0.13898571
0.6729423 0.19662103 -0.15517198
0.6062089 0.065549016 -0.13572223
0.612205 0.23829009 -0.13808952
0.5840985 0.012827188 -0.15652843
0.5792233 -0.012141809 -0.15269153
0.5417131 -0.077456445 -0.13989271
0.63512576 0.20254113 -0.17341901
0.60322845 0.060335442 -0.13472562
0.61134195 0.08815679 -0.12581842
0.5707176 -0.022298604 -0.14582147
0.63385254 0.13040614 -0.13089643
0.50031936 -0.124194995 -0.18201402
0.5965765 0.062414765 -0.120807305
0.48532024 -0.16467378 -0.16634625
0.6386085 0.18491094 -0.18473686
0.57691556 0.031483233 -0.16633692
0.56679606 0.018835336 -0.1821556
0.5049844 -0.16172142 -0.1554512
0.53363305 -0.082792275 -0.12968929
0.58211064 0.21773118 -0.114751935
0.5807754 0.033882454 -0.17133874
0.6157322 0.23664299 -0.10815793
0.66741824 0.21250689 -0.15099043
0.63943726 0.16614747 -0.1638387
0.4812681 -0.20568654 -0.13886155
0.6503398 0.19749671 -0.16551892
0.5573008 -0.009227842 -0.16523468
0.6308728 0.2295727 -0.17786135
0.6228297 0.14922288 -0.18433818
0.61822796 0.23547754 -0.16263649
0.6559547 0.2178601 -0.15858003
0.5158247 -0.07982703 -0.1843582
0.48538023 -0.18228589 -0.12641777
0.5598641 -0.028355159 -0.15877812
0.64664125 0.22220924 -0.1296186
0.6252557 0.20518652 -0.19280595
0.6512056 0.17723121 -0.16087443
0.58884394 0.017374963 -0.15534957
0.5004569 -0.14218421 -0.11975394
0.65739167 0.20898925 -0.16476119
0.64431155 0.20162104 -0.16909546
0.5197389 -0.0738172 -0.18386006
0.60227597 0.0766522 -0.17412886
0.58390844 0.22258687 -0.124838784
0.5342698 -0.057252564 -0.18080449
0.590897 0.089760125 -0.186211
0.5757875 -0.00021371245 -0.13624825
0.47484905 -0.23118906 -0.14888535
0.636044 0.20014863 -0.17819469
0.5974333 0.028511658 -0.15127812
0.6406537 0.1273391 -0.14592917
0.57499826 -0.014636993 -0.14710481
0.47796962 -0.20293954 -0.15894355
0.6065148 0.13126293 -0.18790296
0.66430867 0.1954754 -0.13102503
0.5034021 -0.15619919 -0.15732218
0.4695723 -0.20730299 -0.118885174
0.51479346 -0.14572462 -0.1489486
0.50441015 -0.17114127 -0.15166108
0.62816644 0.23083648 -0.12908779
0.554868 -0.0495883 -0.15656622
0.6164371 0.08821744 -0.15781744
0.48098284 -0.19457808 -0.15934436
0.5493487 -0.057708167 -0.13699622
0.5948371 0.09671846 -0.18590039
0.6533271 0.19092964 -0.16279677
0.48368824 -0.18873322 -0.12882559
0.4827375 -0.17977962 -0.11945571
0.57211745 0.0123806 -0.17840755
0.6725592 0.2101062 -0.13590813
0.542056 -0.06779312 -0.13227968
0.66378593 0.21420307 -0.13602257
0.63618135 0.1392395 -0.15965277
0.6420765 0.15173969 -0.1277226
0.5168279 -0.103207454 -0.17146662
0.6537826 0.2188744 -0.15157482
0.626399 0.23166186 -0.11256306
0.5532477 -0.03880637 -0.15955865
0.6013299 0.07991633 -0.16961852
0.53215986 -0.041967683 -0.1849626
0.4588006 -0.22906959 -0.11777647
0.6234858 0.22357593 -0.18306957
0.6027741 0.12367679 -0.1879921
0.5790032 0.22914994 -0.12842244
0.5152534 -0.11731454 -0.12556554
0.5791966 0.028155163 -0.16195099
0.482139 -0.21832384 -0.15122639
0.6385443 0.1793545 -0.183599
0.472408 -0.22839627 -0.1560991
0.57692945 0.023345977 -0.16196062
0.6010916 0.045259535 -0.14367802
0.6421543 0.14611176 -0.15841007
0.52376485 -0.0908901 -0.16187932
0.60153043 0.07309961 -0.17793152
0.5092954 -0.1246355 -0.17788549
0.5131841 -0.13083285 -0.15825
0.46763933 -0.24934608 -0.15384443
0.62535113 0.23215118 -0.14802498
0.5597688 -0.04680667 -0.14672683
0.49668327 -0.17451017 -0.15649848
0.62930477 0.1353381 -0.17851128
0.6298582 0.12631148 -0.12709458
0.51187783 -0.117532745 -0.17821571
0.48108593 -0.197098 -0.13120617
0.49070847 -0.1765601 -0.15875457
0.550249 -0.009458363 -0.18365501
0.6113229 0.097964406 -0.11742149
0.48470217 -0.2020004 -0.14198871
0.46422353 -0.23260945 -0.13069598
0.63884115 0.15145156 -0.161021
0.5750933 -0.018297032 -0.15404232
0.55543256 -0.017279416 -0.113634035
0.5892597 0.058116034 -0.16371714
0.6240213 0.13386033 -0.16399096
0.52222675 -0.04411333 -0.18897843
0.5067793 -0.14954989 -0.13757755
0.65251684 0.20459397 -0.16603026
0.45842212 -0.24401225 -0.12982582
0.61157477 0.09298372 -0.122127995
0.64555466 0.13222149 -0.15071474
0.5321312 -0.113128304 -0.1528122
0.5465649 -0.058162913 -0.13230123
0.65349567 0.21900839 -0.121052
0.5631823 -0.009621203 -0.12125428
0.66446424 0.18541464 -0.13988693
0.5013386 -0.1342173 -0.16286562
0.5856747 0.007212162 -0.14796923
0.5680683 0.23990372 -0.13559726
0.67637515 0.19914794 -0.14992507
0.5232504 -0.088529535 -0.1706784
0.6032925 0.086300164 -0.16332527
0.55441713 -0.053598054 -0.14274608
0.57030356 0.0059114248 -0.1760675
0.5798892 0.0017485917 -0.14206414
0.51971495 -0.10114187 -0.17497677
0.55320716 0.011141688 -0.1866503
0.59469086 0.24646877 -0.12712118
0.6184999 0.10654342 -0.16073786
0.48034337 -0.18772459 -0.16107094
0.664959 0.20051542 -0.12791516
0.6057995 0.08650434 -0.1721622
0.54932034 -0.036289796 -0.17373723
0.6310669 0.12241474 -0.15841971
0.6243919 0.096242905 -0.14275105
0.5988604 0.103503376 -0.185516
0.58471155 0.04026714 -0.17860009
0.5258896 -0.1258598 -0.15358126
0.49321327 -0.16188972 -0.123329416
0.55612135 -0.032409765 -0.15960966
0.54631793 -0.081232205 -0.15151958
0.5690167 -0.00787577 -0.15896283
0.62734425 0.22019388 -0.18062449
0.5425602 -0.0527808 -0.17801566
0.5146455 -0.10557558 -0.114446715
0.5553713 -0.023116022 -0.11849861
0.5842567 0.21438469 -0.12295996
0.45926654 -0.22490308 -0.11507471
0.51352 -0.14272457 -0.15560201
0.6448517 0.14009091 -0.14272161
0.60179347 0.08979954 -0.18131973
0.5168748 -0.10282919 -0.16247052
0.5400802 -0.03936193 -0.1819484
0.4934355 -0.16586941 -0.12712838
0.62368155 0.23293085 -0.15740548
0.59126514 0.026494518 -0.15617576
0.52320683 -0.069868885 -0.18312977
0.4967137 -0.15605228 -0.124743536
0.6154043 0.10318434 -0.120422825
0.63255167 0.116333306 -0.14051996
0.5240353 -0.080056176 -0.16488689
0.6135088 0.23768124 -0.11535944
0.6155846 0.06708822 -0.1537642
0.5641289 -0.005071789 -0.119103625
0.6335794 0.14834625 -0.170156
0.5836098 0.06159985 -0.18357478
0.46709162 -0.16422667 -0.18854912
0.48994744 -0.16657248 -0.121359155
0.49815843 -0.111103095 -0.1857346
0.5674411 0.027802497 -0.18374844
0.5027921 -0.15700945 -0.13665782
0.629756 0.16702531 -0.18496186
0.6526693 0.19238505 -0.17071266
0.49738726 -0.13723427 -0.16498318
0.639293 0.22564065 -0.1527792
0.6159205 0.07930452 -0.1417257
0.62623954 0.23173629 -0.14188413
0.5507095 -0.024773397 -0.18023218
0.64461136 0.15732071 -0.15965883
0.55637133 0.0063406676 -0.1842195
0.60720456 0.24062517 -0.16687222
0.6526915 0.21164715 -0.1674327
0.60059905 0.056473643 -0.13321738
0.6573703 0.19918019 -0.16271119
0.5691547 0.24999097 -0.13722682
0.5999598 0.08210458 -0.16525117
0.4878608 -0.17182007 -0.16103028
0.5492979 -0.046213455 -0.1597794
0.6502319 0.17753008 -0.17567801
0.49262983 -0.15784407 -0.11881478
0.62060106 0.2073601 -0.18991596
0.51072246 -0.15543538 -0.15419102
0.6003218 0.064386785 -0.12596433
0.55890805 -0.040375732 -0.13967212
0.6323923 0.18489134 -0.18752784
0.60631275 0.24104166 -0.09968737
0.5855306 0.23024693 -0.11032498
0.66819143 0.19547623 -0.13811354
0.6122621 0.13126159 -0.18531844
0.48888668 -0.15828373 -0.16740972
0.5644475 0.00044095516 -0.17934927
0.5583035 0.00075416267 -0.1821777
0.5945032 0.046170637 -0.1588512
0.44746494 -0.2457089 -0.11126639
0.6346094 0.15349232 -0.17993797
0.50565064 -0.09991087 -0.18471584
0.5010279 -0.13689813 -0.17134374
0.4795242 -0.15416929 -0.18507065
0.62799746 0.114748776 -0.13355576
0.50418216 -0.12233361 -0.16408229
0.65123713 0.18135089 -0.11920132
0.51593196 -0.099194705 -0.16640949
0.5062741 -0.12527059 -0.115954235
0.63292325 0.21902196 -0.17786987
0.63926595 0.11939424 -0.15016936
0.5775887 0.22095297 -0.12733737
0.48542455 -0.152452 -0.18277818
0.5273795 -0.07848208 -0.16965088
0.44742328 -0.24153379 -0.107630566
0.5794045 0.23636568 -0.12975714
0.5233985 -0.058397926 -0.1854522
0.46223053 -0.24666095 -0.13903762
0.6430437 0.2238892 -0.12565625
0.5988196 0.033872068 -0.1492389
0.6134956 0.11079168 -0.18046571
0.6164356 0.09558128 -0.1593643
0.4879899 -0.13563292 -0.18515623
0.5817523 0.015016168 -0.13415365
0.56354195 -0.03155908 -0.14061557
0.58476865 0.048683777 -0.163756
0.6261956 0.097914904 -0.15546577
0.54419404 -0.04314483 -0.17930433
0.52490824 -0.09237663 -0.17763875
0.59969217 0.115951166 -0.18775569
0.49771774 -0.15811117 -0.15947667
0.6332451 0.14609432 -0.16241238
0.5475918 -0.029072054 -0.16414574
0.6562982 0.16827078 -0.15670311
0.5717437 0.0015719384 -0.1273425
0.49372423 -0.12578173 -0.18464631
0.53673553 -0.061446846 -0.17220888
0.49860233 -0.14796686 -0.12129809
0.62935567 0.14844528 -0.18124056
0.6599782 0.20143637 -0.11803581
0.5964339 0.041526854 -0.15700804
0.60090506 0.13085389 -0.19033949
0.6514157 0.18596321 -0.11559491
0.6638107 0.21419153 -0.1282226
0.49020046 -0.19210629 -0.1435918
0.5558967 -0.029510766 -0.12491022
0.5088797 -0.14169264 -0.1347134
0.6186286 0.084281325 -0.14242701
0.5955174 0.03280863 -0.14411633
0.47146612 -0.1685518 -0.18567398
0.4851637 -0.17164068 -0.17200056
0.46968785 -0.18360218 -0.18331341
0.5705801 0.24483413 -0.1355031
0.6089323 0.11300582 -0.18298247
0.61420834 0.21034536 -0.19245009
0.6096444 0.12514123 -0.18521039
0.6335285 0.22833256 -0.11770736
0.51197 -0.12363399 -0.16030748
0.57726 0.024145097 -0.11816807
0.5566814 -0.049095623 -0.14304136
0.4701696 -0.17504568 -0.18489343
0.5219929 -0.1188593 -0.1391878
0.59826916 0.07625593 -0.18006065
0.6194251 0.23491848 -0.15056852
0.6332325 0.20955075 -0.17574215
0.62498754 0.123395324 -0.12068801
0.51229775 -0.11490912 -0.17317244
0.64719164 0.17313421 -0.16181903
0.6525638 0.18712777 -0.1717526
0.60394377 0.07097049 -0.15981363
0.5653579 0.00069749355 -0.17148319
0.6347096 0.12832028 -0.15802178
0.5693386 0.017641842 -0.16417606
0.6205496 0.121339545 -0.162923
0.6614572 0.17802945 -0.15643248
0.6299054 0.20187059 -0.1922112
0.4764005 -0.19820252 -0.16064374
0.51873714 -0.11887674 -0.15826356
0.4892797 -0.16352682 -0.17259762
0.61529684 0.14175107 -0.1861564
0.6065078 0.24095057 -0.11042866
0.62116575 0.11095482 -0.16046543
0.5601579 0.010015309 -0.18328846
0.56941265 0.043487683 -0.18615538
0.6669539 0.21272372 -0.12225996
0.5938372 0.07445142 -0.18167455
0.5548594 -0.013828158 -0.16469935
0.59320426 0.06586903 -0.1667594
0.56261516 -0.009474143 -0.1615056
0.6311301 0.13512844 -0.12189947
0.46237314 -0.19707553 -0.1837734
0.5725317 0.013841838 -0.118319675
0.5798998 0.02484855 -0.12238811
0.6735644 0.20488447 -0.13990201
0.6362706 0.12855813 -0.136887
0.51512456 -0.11197698 -0.12077932
0.6536795 0.14878261 -0.15142898
0.55946237 -0.012836546 -0.11720379
0.4819982 -0.18501452 -0.12256922
0.645213 0.19586694 -0.16772908
0.6202228 0.09005992 -0.14041074
0.64502627 0.2229634 -0.13457856
0.5867362 0.22525561 -0.11678186
0.574146 0.23413609 -0.13165344
0.6218076 0.1374748 -0.182331
0.6666101 0.19160306 -0.15696557
0.6227373 0.23337178 -0.16635112
0.49445975 -0.13656129 -0.18205217
0.6224432 0.13214143 -0.18092534
0.5517398 -0.034327216 -0.1611772
0.54958695 -0.06412909 -0.15588763
0.62373376 0.10656139 -0.13275175
0.54555076 -0.041017048 -0.16255538
0.5043479 -0.15939593 -0.14153315
0.51508415 -0.098274685 -0.18081768
0.59388685 0.24684422 -0.15383564
0.6262229 0.14412443 -0.18174191
0.50882316 -0.12258501 -0.17337292
0.59840494 0.24473438 -0.16209014
0.48623237 -0.16896498 -0.116616026
0.6333104 0.14420113 -0.17857118
0.58992594 0.23171973 -0.11709443
0.47261596 -0.16252148 -0.18642317
0.5270079 -0.102921166 -0.13475509
0.57322943 -0.003234148 -0.15804319
0.4620619 -0.23071381 -0.125133
0.490232 -0.20044029 -0.150755
0.51745105 -0.13421181 -0.14398484
0.5229069 -0.0805394 -0.18102413
0.5066019 -0.13824393 -0.15965351
0.5769115 -0.006533876 -0.15569474
0.6514611 0.21995847 -0.12791549
0.6529249 0.16848087 -0.13325612
0.6094405 0.23958103 -0.16245598
0.5174686 -0.084752105 -0.18258491
0.61588025 0.08354008 -0.13804097
0.47131914 -0.237034 -0.14742385
0.54484916 -0.052723534 -0.12453084
0.6039517 0.10874754 -0.18432784
0.5111129 -0.12238121 -0.122325584
0.4605016 -0.25262272 -0.14096408
0.49447474 -0.14275575 -0.16437313
0.5072575 -0.14883125 -0.15713568
0.5282085 -0.07384501 -0.16721067
0.63201 0.12146881 -0.13515238
0.6314908 0.136905 -0.16127166
0.6086348 0.06174335 -0.14339633
0.64753675 0.22179107 -0.15365425
0.46157086 -0.191605 -0.18528281
0.58247995 0.23042497 -0.10460317
0.6247542 0.12693492 -0.11724399
0.59663254 0.09121443 -0.1839374
0.5612543 -0.020154744 -0.12671523
0.59379894 0.05844508 -0.17833088
0.5964039 0.06577903 -0.17267811
0.61468637 0.07445118 -0.14361049
0.6463089 0.20848623 -0.16963887
0.51825327 -0.121875085 -0.1349311
0.56402695 0.0050852 -0.16392788
0.45754766 -0.2370924 -0.12232919
0.49136078 -0.16405156 -0.1610877
0.51097345 -0.12844953 -0.12724479
0.6206268 0.09745222 -0.1348456
0.6301806 0.22989595 -0.14649835
0.6085918 0.07313448 -0.13360538
0.6104614 0.2391043 -0.10739827
0.47421637 -0.15784273 -0.18668596
0.49963427 -0.15754715 -0.13135059
0.66790444 0.1839985 -0.14737566
0.6141275 0.09305236 -0.12673031
0.48935205 -0.19147813 -0.1562321
0.614287 0.23731788 -0.14620073
0.49319482 -0.18647957 -0.14426146
0.5839713 0.037282318 -0.11922075
0.62332964 0.23309517 -0.12746355
0.47152746 -0.2197791 -0.13309236
0.6592693 0.20432688 -0.16293798
0.53981066 -0.016494997 -0.18687104
0.4957208 -0.15098763 -0.17366683
0.58626485 0.09225972 -0.1888187
0.59372514 0.06289461 -0.16271265
0.4881212 -0.121998414 -0.18796004
0.62220186 0.08159992 -0.15383583
0.46779728 -0.18884127 -0.18306343
0.6357461 0.22729696 -0.11190598
0.66112375 0.21544626 -0.14033729
0.62625456 0.12573943 -0.16128163
0.65722287 0.21644633 -0.16640289
0.6548873 0.2183585 -0.13763219
0.49646318 -0.18411575 -0.14821352
0.4841715 -0.1742016 -0.11731802
0.49707025 -0.14024681 -0.18010454
0.53035474 -0.10476648 -0.14243923
0.48765475 -0.16158612 -0.16327177
0.5031898 -0.13122267 -0.17045206
0.6185159 0.11274552 -0.17300645
0.5608835 -0.027004808 -0.13187872
0.5851604 0.25091928 -0.14426997
0.5690122 0.03507471 -0.18456894
0.47704905 -0.21061559 -0.13536082
0.5407938 -0.04341791 -0.16424665
0.62404746 0.11946535 -0.17737666
0.6165744 0.10341346 -0.1775321
0.6317513 0.1605213 -0.182699
0.6104458 0.08041176 -0.13078581
0.56926596 -0.011908829 -0.13431244
0.5319026 -0.090380505 -0.13299967
0.65318376 0.1820532 -0.16099744
0.6162238 0.20985043 -0.1834529
0.59672487 0.059142426 -0.160576
0.64999026 0.1707623 -0.12595282
0.52896225 -0.07878117 -0.11774127
0.5821531 0.2523236 -0.13242987
0.47094327 -0.23188652 -0.14234869
0.5393909 -0.08428762 -0.1414771
0.50684214 -0.10800218 -0.18248114
0.5254301 -0.0742022 -0.18122026
0.45497435 -0.19468904 -0.18760133
0.6135994 0.13666075 -0.18585083
0.59068394 0.026686192 -0.14051138
0.626866 0.10969615 -0.15763807
0.53979224 -0.074513465 -0.13387628
0.5953442 0.2461637 -0.0953383
0.6493372 0.2172382 -0.17011492
0.6230866 0.102947846 -0.1579205
0.562029 -0.036878005 -0.14238824
0.56224084 -0.005086094 -0.17072296
0.60309327 0.064177096 -0.13120331
0.56711394 -0.006726086 -0.12596433
0.57950395 0.042565316 -0.18142422
0.5949813 0.024049133 -0.15399134
0.5306532 -0.070307724 -0.17968945
0.46703425 -0.21899557 -0.124220416
0.6585797 0.17357607 -0.15679121
0.45759755 -0.20191029 -0.18490554
0.6417055 0.13561521 -0.15640786
0.4748358 -0.20437819 -0.12600173
0.6425798 0.16203375 -0.1615619
0.5006431 -0.116009146 -0.18358727
0.5113646 -0.11774902 -0.11883558
0.49927312 -0.16433617 -0.1364796
0.47956762 -0.17462794 -0.16433004
0.47607493 -0.18862098 -0.1698837
0.50290954 -0.16706657 -0.14544709
0.49634588 -0.18968803 -0.15346324
0.5781357 0.011592343 -0.13046964
0.6278269 0.23099506 -0.17063446
0.4919688 -0.14986235 -0.16585696
0.56403375 -0.020091072 -0.13173576
0.46593487 -0.1703414 -0.18778531
0.58824724 0.043626994 -0.17771578
0.65045345 0.220429 -0.1624688
0.46764946 -0.23624992 -0.14005508
0.5263124 -0.098925866 -0.13007878
0.6459706 0.15910023 -0.12855683
0.57244 0.019844577 -0.16808873
0.6768242 0.20705661 -0.15561768
0.5917042 0.023574218 -0.14502747
0.5561031 -0.06222038 -0.15317582
0.6326712 0.10987759 -0.14624251
0.61646426 0.08828975 -0.13505755
0.6275213 0.21086581 -0.17858626
0.4760704 -0.17313206 -0.18264197
0.57205737 0.22605824 -0.13089642
0.55979246 -0.00837113 -0.17959212
0.62368375 0.100872695 -0.13751067
0.680014 0.20298368 -0.15329863
0.61952424 0.12272844 -0.18026137
0.50492877 -0.12683174 -0.17938778
0.6177609 0.2356956 -0.12245752
0.6042465 0.24200654 -0.13704756
0.5388846 -0.044717528 -0.18136147
0.54933316 -0.07422001 -0.15388295
0.5877173 0.007826194 -0.1538512
0.64645123 0.17476365 -0.1711339
0.5394136 -0.08844856 -0.15535562
0.45767742 -0.20787829 -0.1836165
0.59632874 0.0465284 -0.1339
0.47827107 -0.2264137 -0.15106182
0.5435118 -0.04434278 -0.16999793
0.6260704 0.12613261 -0.17538553
0.51498604 -0.12540627 -0.13197644
0.5398247 -0.05522348 -0.17254305
0.5485141 -0.068011306 -0.14425717
0.49250796 -0.15416798 -0.17051241
0.6372848 0.19956921 -0.18304576
0.6537892 0.17304832 -0.15883441
0.63963306 0.22548188 -0.13101672
0.5099983 -0.13349995 -0.1297705
0.5580872 -0.023242235 -0.12356509
0.5935241 0.10757916 -0.18877123
0.47374338 -0.18745698 -0.16409476
0.5349381 -0.07736739 -0.12744673
0.45783788 -0.25116104 -0.13485424
0.5668062 -0.033745594 -0.14843984
0.53406936 -0.10576276 -0.15007098
0.63435227 0.1663645 -0.1827564
0.587529 0.025074184 -0.13612537
0.5478973 -0.0155046955 -0.18344286
0.60735714 0.09298164 -0.1694834
0.6298156 0.20378585 -0.17606807
0.5672637 0.0040136874 -0.11708091
0.6609459 0.16710351 -0.15436822
0.6269033 0.1525324 -0.18320142
0.47411728 -0.2330199 -0.1543597
0.6443362 0.17736253 -0.16505644
0.620962 0.12426683 -0.11259498
0.5242233 -0.13062555 -0.15329222
0.49076602 -0.18380761 -0.13754879
0.46417734 -0.1829155 -0.18593536
0.64349186 0.14717901 -0.13419528
0.51127636 -0.11366635 -0.16271229
0.4878597 -0.18305333 -0.1315992
0.60583305 0.066219404 -0.15796652
0.63796127 0.22626258 -0.122097954
0.5754303 0.005483672 -0.13073839
0.50200593 -0.10527017 -0.18522933
0.47665057 -0.1818657 -0.16517502
0.54554945 -0.06752367 -0.13842832
0.5848172 0.016146153 -0.13878615
0.66324675 0.17271492 -0.1545119
0.47930634 -0.16082251 -0.18377163
0.6102907 0.090062454 -0.1775542
0.62261903 0.12841362 -0.16347784
0.48835033 -0.19771752 -0.14499797
0.6345531 0.22785407 -0.13343894
0.5621185 -0.003629312 -0.1629562
0.65976566 0.18961748 -0.12772475
0.58496493 0.2375759 -0.12751102
0.64257175 0.21257481 -0.17217776
0.6766317 0.20820442 -0.14522694
0.63802886 0.15889569 -0.17953502
0.45494068 -0.25094926 -0.1293839
0.5740883 0.02731365 -0.16407123
0.55974877 -0.010252386 -0.1705778
0.60771847 0.11835423 -0.18465127
0.59285885 0.06966455 -0.18110937
0.49780774 -0.1469938 -0.16177054
0.60287035 0.07758926 -0.16168605
0.5844283 0.04278536 -0.17041758
0.6496076 0.13866061 -0.15262462
0.47726455 -0.19110562 -0.17417416
0.613469 0.085908145 -0.13161932
0.5482105 -0.0513336 -0.12948306
0.4699923 -0.21095362 -0.12276463
0.45109266 -0.24708337 -0.11906196
0.4785918 -0.2042712 -0.13276829
0.66564286 0.21333593 -0.1586164
0.5083741 -0.16175768 -0.15089802
0.6228446 0.23332167 -0.17316717
0.6336967 0.118576795 -0.15643139
0.59979427 0.24408558 -0.13886814
0.66547537 0.1977237 -0.15876096
0.67390174 0.20947926 -0.15021552
0.4525256 -0.25033054 -0.124446765
0.46654978 -0.24144578 -0.14247732
0.6357192 0.22730957 -0.1275491
0.47645015 -0.18864924 -0.17921305
0.6069393 0.07954204 -0.12512507
0.58945966 0.24707548 -0.12748463
0.5901258 0.052630752 -0.17242593
0.6265093 0.120733485 -0.16011599
0.5646559 0.008877218 -0.181027
0.46298045 -0.25482935 -0.14737137
0.64971614 0.15719001 -0.15733606
0.6183432 0.23542374 -0.11467379
0.62748355 0.20414616 -0.1861053
0.5659308 -0.040217496 -0.15355949
0.63453984 0.13973159 -0.12420027
0.48754537 -0.18058082 -0.1593326
0.6215448 0.09628874 -0.15721552
0.6292231 0.11218715 -0.1379777
0.4845984 -0.19830889 -0.15693527
0.47848704 -0.21740818 -0.14377789
0.46105057 -0.23773131 -0.12926964
0.6582148 0.15871385 -0.15124218
0.4759748 -0.20973149 -0.1584144
0.6487616 0.22121908 -0.12277621
0.4859659 -0.21022639 -0.15381804
0.6106514 0.23901558 -0.10219607
0.61511374 0.11817299 -0.18128799
0.5072737 -0.13436566 -0.12553395
0.47597376 -0.22013879 -0.15622962
0.57712424 0.01911971 -0.122204885
0.61615866 0.09988308 -0.12461488
0.5640458 -0.032889463 -0.15594576
0.6150644 0.1513714 -0.18828094
0.5291511 -0.08139872 -0.16145034
0.5307878 -0.07496097 -0.16206616
0.5751403 0.25532305 -0.13565502
0.5545523 -0.016398236 -0.18026285
0.63521385 0.11529556 -0.14626552
0.6042839 0.07484333 -0.12428291
0.55425483 -0.027863175 -0.12050767
0.50751907 -0.13813573 -0.12919639
0.66557866 0.20532638 -0.12494467
0.5935004 0.019622684 -0.15167616
0.6544264 0.1753934 -0.1301039
0.5466182 -0.028575815 -0.1812734
0.61531425 0.0692011 -0.14923315
0.62975615 0.22509217 -0.1805685
0.57178336 -0.013230443 -0.14003567
0.55105346 -0.031570323 -0.17865036
0.4714111 -0.20203707 -0.117752746
0.5206183 -0.12624013 -0.15587159
0.5226683 -0.08725908 -0.17972048
0.5002068 -0.14020383 -0.1621175
0.56626844 -0.014253929 -0.130839
0.5981326 0.07051118 -0.11674534
0.5505559 -0.05242704 -0.13469757
0.4651236 -0.24846256 -0.14585595
0.46214205 -0.21004902 -0.18115324
0.47217947 -0.19389859 -0.16344543
0.48191157 -0.1788468 -0.17220673
0.59895533 0.24447736 -0.12453301
0.594393 0.24255663 -0.116010845
0.5283186 -0.08562596 -0.17745647
0.4853947 -0.19370967 -0.13618429
0.5138382 -0.10921613 -0.17113107
0.589341 0.036085054 -0.13004573
0.56296146 -0.046183415 -0.1520247
0.61916286 0.08091998 -0.14626835
0.5755943 0.055979773 -0.18599883
0.53772664 -0.07292209 -0.12874801
0.57292396 -0.0012757182 -0.13192542
0.54282403 -0.07337069 -0.15698805
0.56841135 0.22929068 -0.13321456
0.5766283 0.0015936792 -0.15752864
0.49167898 -0.1436998 -0.18180364
0.55134904 -0.032443173 -0.1191072
0.60002106 0.05055608 -0.1372075
0.56550086 -0.005623102 -0.17713311
0.5018768 -0.17777735 -0.15269364
0.6468564 0.14305542 -0.15565404
0.5233113 -0.085138015 -0.16329102
0.63317513 0.10415952 -0.15363866
0.5769493 0.0245682 -0.17229444
0.5745226 0.03772135 -0.18264696
0.52017874 -0.09836254 -0.118399456
0.50776774 -0.15366958 -0.14289482
0.56271124 -0.013871193 -0.12401782
0.6448525 0.17661947 -0.18018828
0.57941103 0.21626239 -0.12553304
0.60737085 0.2405475 -0.12114531
