0.14408687 -0.43130666 0.11894533
0.17425261 -0.41776705 0.09956576
0.1781024 -0.25605345 0.15974772
0.122743346 -0.41004717 0.14509985
0.20186454 -0.39340794 0.08634932
0.13671449 -0.3365752 0.15299684
0.2368862 -0.3123693 0.09114741
0.21607533 -0.3695277 0.088131055
0.21226454 -0.37753478 0.089019775
0.12434677 -0.4024452 0.14490683
0.19104783 -0.40486136 0.094949186
0.25344503 -0.29252073 0.09400652
0.18926743 -0.40198606 0.09167522
0.16328537 -0.4305882 0.10268819
0.21179771 -0.362727 0.092795506
0.16473204 -0.2916005 0.15960297
0.16265103 -0.28859466 0.15300469
0.21005122 -0.37967217 0.08714309
0.15594599 -0.29329696 0.1545138
0.22026986 -0.35565802 0.09410608
0.24195956 -0.31743887 0.0933155
0.1335645 -0.33443692 0.15727445
0.14418346 -0.31428802 0.15825611
0.16959275 -0.24267113 0.1670248
0.12089183 -0.3823771 0.15040451
0.16446382 -0.28290027 0.16150986
0.21706104 -0.35355884 0.086488515
0.1186862 -0.3903257 0.15548488
0.13923007 -0.42090628 0.12449879
0.123971105 -0.36348876 0.15294081
0.15447918 -0.31261596 0.15709922
0.2610343 -0.26968306 0.0862378
0.24159037 -0.31684053 0.086330995
0.12192742 -0.39641842 0.14553735
0.1431264 -0.4242729 0.12362917
0.22154537 -0.35942036 0.08867331
0.13524121 -0.42436913 0.13075258
0.26535672 -0.27062893 0.09338489
0.16536385 -0.28737304 0.16097146
0.13807018 -0.3423507 0.15477127
0.120368086 -0.3917468 0.14629498
0.2570176 -0.2892813 0.0871488
0.18638647 -0.40701464 0.093977615
0.14605625 -0.32030153 0.16155836
0.22175843 -0.3502575 0.09423444
0.25982475 -0.28062174 0.09377886
0.15128455 -0.43232548 0.11313985
0.21721521 -0.3554651 0.09385659
0.17032132 -0.2818243 0.15852697
0.2410187 -0.32245404 0.09017733
0.14058025 -0.322464 0.15473062
0.12287121 -0.3576172 0.1541993
0.12606706 -0.3642487 0.16061524
0.17756844 -0.25077307 0.15998766
0.11638627 -0.38005692 0.15793774
0.20506144 -0.38054478 0.085697204
0.1632561 -0.42299753 0.10007104
0.22548927 -0.3451824 0.09416543
0.14068724 -0.42591015 0.115017064
0.1506667 -0.4284035 0.10712315
0.17170335 -0.24193786 0.16245903
0.22414441 -0.35448223 0.09149636
0.13204744 -0.41605347 0.13028519
0.11818816 -0.3718346 0.16023748
0.25205368 -0.29552767 0.08603926
0.17340463 -0.26252043 0.16376925
0.21797729 -0.3663915 0.0888131
0.17502624 -0.42267054 0.10207814
0.15335351 -0.31372577 0.15941018
0.2319288 -0.335239 0.086279675
0.1679386 -0.4274697 0.09723021
0.15274715 -0.42439467 0.10828492
0.2442404 -0.29804617 0.08870509
0.1697189 -0.2751248 0.15324014
0.23382738 -0.33578223 0.08869079
0.17653002 -0.25550804 0.16497308
0.17597045 -0.26530907 0.16147731
0.1916799 -0.41239512 0.09036589
0.21573937 -0.36481112 0.08590038
0.12450729 -0.41427982 0.1313842
0.22039975 -0.34436876 0.09150931
0.19860187 -0.39940387 0.08651161
0.15606505 -0.2958829 0.1534451
0.15564936 -0.43177557 0.10632483
0.12548801 -0.41520068 0.14099377
0.15682134 -0.2985214 0.1615679
0.20191169 -0.38157618 0.09271459
0.13003175 -0.35974875 0.15757571
0.17119735 -0.2454497 0.16867161
0.25270128 -0.28216988 0.08840679
0.25872496 -0.28182194 0.08558752
0.17112404 -0.22632003 0.17180099
0.2499674 -0.29205626 0.09377186
0.26314145 -0.2803176 0.09108265
0.15423396 -0.30560252 0.15309437
0.1255703 -0.36958733 0.1570498
0.1261628 -0.35798383 0.15298635
0.16187663 -0.28461754 0.16094345
0.14716001 -0.3232254 0.16074161
0.24013123 -0.30563575 0.08972478
0.25358886 -0.29791355 0.08895557
0.22517058 -0.33960044 0.093720585
0.13342273 -0.34799388 0.1534876
0.12817621 -0.36267513 0.15585126
0.21952745 -0.3547389 0.08565529
0.1168847 -0.3699561 0.15855286
0.212246 -0.37135893 0.09407419
0.14455481 -0.3313115 0.15881264
0.22293231 -0.35492253 0.08716707
0.221687 -0.3427677 0.08736825
0.13083568 -0.42370245 0.1326735
0.11798445 -0.38740903 0.1474204
0.2509682 -0.3029888 0.09114316
0.12942801 -0.41253364 0.13644065
0.17421256 -0.23269251 0.17507753
0.22565487 -0.34970242 0.09288238
0.23473755 -0.3341075 0.09144281
0.13451506 -0.33514303 0.15422398
0.17742397 -0.41608682 0.09837873
0.13264298 -0.4258261 0.12961057
0.18422626 -0.41815388 0.097252026
0.2273178 -0.34134257 0.09420897
0.19633505 -0.39541376 0.08596082
0.16383657 -0.2819542 0.15323797
0.22504288 -0.3526115 0.08856849
0.12643176 -0.41957462 0.12837154
0.2005314 -0.4000975 0.090320006
0.13965288 -0.32814133 0.15328987
0.20692231 -0.3726333 0.09301998
0.17321107 -0.24471985 0.16078892
0.19771433 -0.40259236 0.087662935
0.21039818 -0.38052702 0.09188625
0.12541877 -0.35703877 0.16139197
0.17529939 -0.42158514 0.09259763
0.12072602 -0.35917693 0.15743181
0.16239026 -0.28490934 0.1532153
0.118404865 -0.39349565 0.14485836
0.12807609 -0.3554232 0.15303236
0.16044801 -0.30084553 0.15630561
0.20197906 -0.38925377 0.09422377
0.1575309 -0.30192077 0.16112602
0.20079748 -0.3821955 0.08806983
0.25357896 -0.29660118 0.09254509
0.23271388 -0.3384419 0.09049
0.12971476 -0.3468529 0.15338066
0.175556 -0.26029837 0.16382977
0.25364304 -0.28055182 0.090922594
0.23436606 -0.32914412 0.08592877
0.24664506 -0.3062427 0.093919784
0.2572336 -0.27458873 0.091123134
0.17166999 -0.24837068 0.15996185
0.2349787 -0.3197101 0.09346734
0.15583271 -0.30278087 0.15312359
0.1415847 -0.4221589 0.12255986
0.12264535 -0.35593683 0.15850376
0.1580677 -0.29177693 0.15351781
0.14476272 -0.32178944 0.15299156
0.19398695 -0.4068865 0.094381794
0.26277733 -0.27677885 0.08575259
0.2567516 -0.28890198 0.09332977
0.11408192 -0.38835663 0.14968537
0.2141794 -0.36883926 0.093909666
0.21582806 -0.35260043 0.08904569
0.16622898 -0.2777233 0.16130885
0.13635719 -0.34712118 0.1587621
0.23471601 -0.33045238 0.09358589
0.12847951 -0.41301495 0.1394966
0.1735767 -0.4235927 0.093880534
0.24584383 -0.3076614 0.08608341
0.24460906 -0.3102312 0.08613253
0.14353602 -0.4305847 0.113863066
0.1429913 -0.3244286 0.15299773
0.116317935 -0.39054602 0.14650172
0.1993356 -0.39802212 0.0937559
0.23313719 -0.3259275 0.08577219
0.26015618 -0.26891991 0.0891871
0.17377609 -0.22965474 0.17604394
0.1405311 -0.3210793 0.15777647
0.14388353 -0.31733054 0.16024143
0.17020676 -0.24544388 0.16278934
0.2299482 -0.3409421 0.093128085
0.17010482 -0.2509472 0.16158584
0.17329401 -0.2756332 0.15826043
0.24370784 -0.3029443 0.0934781
0.19555664 -0.39152008 0.090137094
0.12007469 -0.4014907 0.15035436
0.11615641 -0.38606593 0.15687941
0.1289697 -0.42296916 0.12629944
0.22967473 -0.32659435 0.09163469
0.12171672 -0.36812288 0.1610758
0.25470322 -0.28310627 0.08587052
0.19208115 -0.41109225 0.09404364
0.25806323 -0.28401464 0.093853176
0.2100905 -0.36346275 0.08954179
0.25418562 -0.29187715 0.0861548
0.12821573 -0.34758386 0.16027693
0.1161458 -0.40021545 0.14305994
0.13319102 -0.41829407 0.1334146
0.1774374 -0.41886285 0.09122184
0.22161254 -0.34612992 0.09363814
0.17263967 -0.26045448 0.15538998
0.16731247 -0.4209545 0.0990911
0.14879084 -0.43208805 0.11604024
0.20220658 -0.384781 0.093959585
0.11807927 -0.36532295 0.15668103
0.13327405 -0.33747086 0.16011646
0.18194616 -0.42003065 0.098202914
0.22645205 -0.34609205 0.08635689
0.19918366 -0.38748097 0.09299645
0.16282615 -0.28847066 0.16155419
0.121668056 -0.36114734 0.153725
0.13032378 -0.42037335 0.124724
0.12608401 -0.41050157 0.13408259
0.12882504 -0.34357613 0.15740544
0.18356065 -0.4207244 0.0952335
0.17835647 -0.24884927 0.16412604
0.22748059 -0.34824362 0.0890356
0.16456304 -0.43040603 0.10521613
0.24834621 -0.29021245 0.08854084
0.11926875 -0.36246097 0.15634686
0.17214121 -0.22565578 0.17475429
0.25652424 -0.2855631 0.08569336
0.1587741 -0.4269572 0.11170239
0.12067977 -0.39969656 0.14163634
0.20872563 -0.3674127 0.08763246
0.18754888 -0.40892914 0.0958429
0.1689995 -0.26785353 0.15451398
0.16984841 -0.24843527 0.16365728
0.13705307 -0.42058474 0.12892213
0.15154898 -0.42956927 0.11694793
0.1749104 -0.26798978 0.15512878
0.13190322 -0.35021618 0.1613262
0.11462198 -0.3995853 0.14669117
0.1351214 -0.41951084 0.13130936
0.13085252 -0.3397578 0.15796643
0.20997615 -0.3651545 0.09211442
0.20195213 -0.39721945 0.09148723
0.255281 -0.27939236 0.08678296
0.14920044 -0.3197356 0.16059364
0.23591913 -0.3149945 0.087683335
0.11884292 -0.4118262 0.13928175
0.24948251 -0.2957024 0.094188884
0.17772427 -0.24048513 0.16814344
0.13736497 -0.32741424 0.15824708
0.17275232 -0.25852066 0.16461205
0.12716885 -0.36552367 0.15714797
0.22823969 -0.341574 0.08608703
0.1284661 -0.35834217 0.16099513
0.17213961 -0.23335984 0.16671064
0.20633829 -0.38917837 0.089677915
0.15302998 -0.42955685 0.105749026
0.12325913 -0.39914012 0.14716506
0.17476891 -0.41638416 0.09678528
0.16813725 -0.4221161 0.09635392
0.12031453 -0.39295173 0.15383351
0.16637717 -0.27094713 0.15925793
0.20311423 -0.39408982 0.09230527
0.15385696 -0.30052578 0.15333466
0.13784957 -0.42450315 0.12890986
0.13452107 -0.3419266 0.16156329
0.2188057 -0.34967357 0.09298782
0.14547765 -0.31166056 0.15806359
0.17415513 -0.22901079 0.17266865
0.15888993 -0.4263262 0.10152881
0.17068258 -0.2569635 0.15752792
0.14056571 -0.43027437 0.117754996
0.25874734 -0.2870943 0.0923004
0.14470816 -0.4274163 0.11153179
0.23362528 -0.3181482 0.089578226
0.1427471 -0.33228996 0.15423796
0.13140029 -0.4169276 0.13558197
0.14943174 -0.32238105 0.15748718
0.2033565 -0.3765137 0.09026198
0.20940843 -0.37072432 0.09391181
0.17204201 -0.2690201 0.16229585
0.11778618 -0.4062158 0.13977006
0.15579654 -0.43189532 0.11125956
0.1221237 -0.4148677 0.13359182
0.12657033 -0.40838814 0.13859326
0.12339419 -0.4033012 0.14737675
0.20254217 -0.39570573 0.0882304
0.12621997 -0.42035306 0.13619125
0.11893684 -0.40872192 0.1377184
0.12151157 -0.40213308 0.14015579
0.13681039 -0.3446297 0.16007353
0.16778515 -0.28599516 0.159357
0.22671351 -0.33497852 0.08648576
0.18556619 -0.41864026 0.09475486
0.16486523 -0.29057062 0.15464064
0.19462457 -0.3992337 0.08607946
0.26761192 -0.268934 0.08543204
0.2639764 -0.26827824 0.08500929
0.21950385 -0.36372104 0.08920425
0.21168011 -0.3749917 0.086475044
0.11447911 -0.39599425 0.1502786
0.20814645 -0.38571322 0.08980797
0.16827345 -0.26941687 0.16106904
0.12321711 -0.41081524 0.1338965
0.14156476 -0.33099765 0.16141042
0.122116186 -0.35974738 0.16045591
0.119223334 -0.3796423 0.15890399
0.14682654 -0.4249475 0.119977884
0.14850712 -0.31675494 0.16152728
0.16224559 -0.42619792 0.09937841
0.23754275 -0.32457197 0.08631635
0.17341504 -0.2734668 0.16026178
0.2377078 -0.31634218 0.09394096
0.16379817 -0.29468253 0.15720017
0.13811114 -0.34109706 0.16058818
0.11389444 -0.39193314 0.150362
0.15209389 -0.31722176 0.15721403
0.23619197 -0.32310668 0.09422736
0.16186813 -0.29749516 0.15548036
0.20542082 -0.37398148 0.08745161
0.13075209 -0.41438192 0.13390964
0.12900311 -0.41591966 0.12879834
0.16853783 -0.26416826 0.15720095
0.13148391 -0.35661647 0.15852559
0.1535694 -0.2965353 0.15871379
0.14236414 -0.31900457 0.15475112
0.23877186 -0.31000435 0.08729987
0.25761974 -0.27354616 0.08818106
0.17292298 -0.23957872 0.17297235
0.17007667 -0.42300236 0.10416202
0.17396979 -0.42600402 0.09614691
0.117793486 -0.40949345 0.14186975
0.2619212 -0.28210974 0.08805008
0.13553005 -0.33915955 0.15299499
0.1400476 -0.42696518 0.12626287
0.24452172 -0.3036246 0.085824996
0.11908553 -0.39809325 0.15221387
0.19176604 -0.40843558 0.08703098
0.17946613 -0.41849244 0.099721074
0.14110506 -0.33489195 0.1607419
0.12724173 -0.35047713 0.16071591
0.14193125 -0.33682913 0.15754664
0.14635435 -0.32828027 0.1572505
0.1531185 -0.3033472 0.16135064
0.1357396 -0.4188549 0.12648109
0.17911114 -0.42260903 0.09904976
0.25035962 -0.28745285 0.08744317
0.11955929 -0.3963079 0.1437058
0.13335249 -0.34523973 0.15302984
0.19190082 -0.40354708 0.086479336
0.11872957 -0.3759538 0.1597416
0.14496776 -0.32723236 0.1539008
0.12393125 -0.371971 0.15440741
0.13690898 -0.42367396 0.11871379
0.16949931 -0.2835766 0.15653542
0.22066158 -0.35114592 0.08566883
0.11858855 -0.40228206 0.14036505
0.122204326 -0.37173915 0.16042586
0.26137537 -0.2834211 0.091132104
0.119626105 -0.38701785 0.15653142
0.25058877 -0.28566015 0.09064007
0.1984492 -0.40326893 0.09053998
0.2123109 -0.36688286 0.08567202
0.12170273 -0.388233 0.15401961
0.16784845 -0.42098737 0.102137566
0.19658971 -0.40526396 0.08873552
0.12038428 -0.41264862 0.13598359
0.13509116 -0.34992087 0.15683082
0.13612393 -0.33468163 0.16106282
0.14721248 -0.311775 0.15377757
0.21892504 -0.3603859 0.086305425
0.23997447 -0.32084754 0.08662535
0.14515552 -0.32745868 0.16062734
0.1733651 -0.26598203 0.16280724
0.12404425 -0.40591988 0.13856824
0.17712756 -0.26181236 0.16131763
0.13408934 -0.4235255 0.12082843
0.13628519 -0.33059818 0.15485248
0.1700077 -0.26468366 0.16218127
0.22873765 -0.34557727 0.091560766
0.1763416 -0.2572077 0.1572285
0.12837891 -0.35084787 0.15315372
0.14312473 -0.3342708 0.1583705
0.16147237 -0.2810189 0.15828642
0.12191388 -0.39053518 0.14877526
0.1692411 -0.42498147 0.0954877
0.17658603 -0.26019523 0.15723565
0.21245354 -0.36606184 0.09408088
0.17656946 -0.42512175 0.09872332
0.1691303 -0.2805873 0.15384999
0.26475614 -0.27445376 0.08596593
0.19372691 -0.3965542 0.087350816
0.15139803 -0.30738726 0.16143408
0.11687303 -0.36851215 0.15577918
0.13536201 -0.42739624 0.12067298
0.11606633 -0.39672136 0.14420763
0.20520958 -0.3882509 0.09329617
0.17598109 -0.26860073 0.1593445
0.2567046 -0.2785246 0.09316309
0.2027367 -0.37882835 0.09192157
0.14562365 -0.43204737 0.11647874
0.13873424 -0.32447523 0.15722415
0.21480751 -0.37242103 0.088711336
0.23111725 -0.3309984 0.08566828
0.16322754 -0.27984953 0.1601437
0.131559 -0.4255496 0.12437219
0.2072156 -0.37173602 0.08681789
0.15933311 -0.43032783 0.10269907
0.22710025 -0.3375093 0.094041154
0.17753324 -0.2522965 0.16533054
0.2061215 -0.37539247 0.093496844
0.15856226 -0.30473197 0.15691318
0.16762961 -0.27809593 0.15298674
0.22637144 -0.33371466 0.09221101
0.14462933 -0.3301962 0.1551171
0.12632394 -0.4219829 0.13064906
0.11732211 -0.38084635 0.14980656
0.22276828 -0.34574887 0.085791275
0.1423256 -0.32323483 0.16118747
0.14124459 -0.42867914 0.11479185
0.12377885 -0.41899383 0.13275814
0.13949534 -0.33531138 0.15324578
0.17861134 -0.2533479 0.16205248
0.19915307 -0.39358795 0.08565819
0.13784546 -0.4296232 0.12149331
0.19448256 -0.39436814 0.09164409
0.17608768 -0.26507384 0.15648729
0.16263439 -0.42867914 0.10914129
0.20548578 -0.37857866 0.09397793
0.11643284 -0.40489504 0.14263979
0.2633615 -0.27946895 0.08775528
0.15137145 -0.3019967 0.15456682
0.13459677 -0.3423732 0.15298212
0.23383528 -0.3246097 0.09405036
0.2223936 -0.348675 0.08566055
0.25534213 -0.27724737 0.09030461
0.14980367 -0.4260252 0.11763421
0.125281 -0.35379466 0.1538372
0.17238037 -0.27610144 0.15520881
0.24200311 -0.3081581 0.09396322
0.1973621 -0.3906784 0.08683306
0.11999198 -0.41141364 0.14361589
0.15440577 -0.42562354 0.10530892
0.14019167 -0.423564 0.12671974
0.17242822 -0.27040517 0.15389945
0.15443078 -0.43056697 0.11418563
0.12194975 -0.38705155 0.15076356
0.12073383 -0.41455686 0.1389488
0.11798516 -0.36729327 0.15886028
0.18524686 -0.40945804 0.08852813
0.19844195 -0.38589114 0.08946276
0.1393584 -0.42206705 0.11940895
0.23028484 -0.33801883 0.08618215
0.13421023 -0.42767364 0.12403136
0.2221466 -0.35777867 0.09199785
0.19195323 -0.39994258 0.09339604
0.1838559 -0.41211835 0.088732064
0.2597199 -0.2854214 0.08767162
0.123921365 -0.35308006 0.15791263
0.16156203 -0.29591233 0.16060363
0.16669695 -0.42735738 0.1066518
0.22913313 -0.33533013 0.09423648
0.12792659 -0.413825 0.1310107
0.18863642 -0.4124039 0.096113205
0.17447281 -0.27247742 0.15696628
0.25868803 -0.27644247 0.093418926
0.15754218 -0.42474398 0.10364221
0.16393025 -0.2759282 0.1569905
0.115736105 -0.37198633 0.15646026
0.17148933 -0.27640015 0.1607489
0.17490658 -0.2368379 0.17323811
0.23385912 -0.33262372 0.08662535
0.20901543 -0.38247412 0.08765955
0.1269095 -0.3472743 0.15745743
0.20679435 -0.38384 0.0863307
0.12218067 -0.39808372 0.14996758
0.11748025 -0.3926327 0.15450019
0.23641181 -0.33107105 0.09103492
0.19642147 -0.4061786 0.0916964
0.1254742 -0.36719462 0.15979868
0.12272979 -0.3641783 0.16141737
0.22239423 -0.34215432 0.092726305
0.12226768 -0.38158038 0.15621565
0.19029158 -0.40855223 0.09554292
0.12281695 -0.39910835 0.14393175
0.13944744 -0.42911974 0.12429456
0.13951567 -0.3322367 0.15298793
0.25334096 -0.28438568 0.09334265
0.22512439 -0.33636603 0.092390016
0.1196176 -0.36406478 0.15968134
0.17058213 -0.4217109 0.09470625
0.16527334 -0.429605 0.10064708
0.14279172 -0.42358804 0.1157117
0.2321583 -0.33295065 0.09408222
0.12969565 -0.4190586 0.13693252
0.25851804 -0.2887996 0.08961119
0.16938677 -0.27119848 0.15354177
0.1569033 -0.30570772 0.15452866
0.21543615 -0.36092487 0.08567156
0.24598157 -0.29444063 0.08925098
0.16779767 -0.2670157 0.15918955
0.2529473 -0.28630915 0.08595553
0.19646195 -0.40204644 0.09429045
0.19519523 -0.4028241 0.086413205
0.25398985 -0.28828233 0.094232336
0.116754524 -0.37120423 0.15361689
0.13266706 -0.4214174 0.12270345
0.11789078 -0.38382638 0.14893949
0.16579977 -0.27365074 0.1598388
0.1576882 -0.29123732 0.16045398
0.22844192 -0.33076063 0.092832685
0.24751449 -0.29225093 0.091649756
0.15466034 -0.3096767 0.16036439
0.16501905 -0.4270331 0.09811558
0.15549113 -0.42847377 0.10362345
0.15993321 -0.28867617 0.16102257
0.19696939 -0.3887679 0.089371786
0.12607354 -0.353697 0.16097811
0.11541869 -0.3788205 0.1516977
0.123363435 -0.37462342 0.15816802
0.23871033 -0.3259012 0.09198214
0.21504614 -0.35751987 0.0932481
0.17544192 -0.23535985 0.16709878
0.15129656 -0.30028242 0.15721637
0.23345172 -0.3214236 0.08670963
0.19092095 -0.40007147 0.08839281
0.16981506 -0.2555782 0.16137521
0.21504618 -0.3544682 0.09121159
0.12528777 -0.36747512 0.15419336
0.12741956 -0.42235404 0.1338939
0.20909753 -0.3759555 0.08571513
0.23962712 -0.3112514 0.09359032
0.18759006 -0.40476683 0.092329994
0.12893824 -0.42415196 0.12967937
0.18228495 -0.4152694 0.098138705
0.17718063 -0.41484803 0.09457202
0.16054031 -0.42501685 0.10930727
0.2516237 -0.29877245 0.0933342
0.15608352 -0.4255649 0.11272015
0.1350251 -0.41970384 0.12367038
0.12226627 -0.4082473 0.13591638
0.19072811 -0.41099653 0.08787666
0.21188277 -0.37643164 0.092777446
0.120949216 -0.40443176 0.13857323
0.2052423 -0.37288862 0.090329215
0.16728276 -0.28307217 0.1611442
0.2622776 -0.2686893 0.09256272
0.16123211 -0.42892662 0.10086952
0.14185825 -0.43021896 0.12173401
0.1205067 -0.40635848 0.1474849
0.18483505 -0.41508615 0.08902289
0.24823023 -0.3049465 0.08662368
0.16570598 -0.42451337 0.10691341
0.17038682 -0.24783623 0.16640216
0.13279772 -0.3387469 0.15407483
0.17207178 -0.42773423 0.101428315
0.17768148 -0.2457945 0.16725048
0.1595918 -0.28636122 0.15447016
0.17263757 -0.41794738 0.09569219
0.16805147 -0.27421373 0.16158326
0.11919349 -0.38245434 0.15812437
0.2490842 -0.3003399 0.09408301
0.20079389 -0.39527223 0.093728006
0.19438447 -0.4069934 0.08776705
0.1696252 -0.41955623 0.09844151
0.21485904 -0.3622835 0.09417714
0.114229135 -0.38184923 0.15489432
0.17587054 -0.25333503 0.15755895
0.1362639 -0.42113602 0.12128622
0.116408266 -0.38869095 0.15586773
0.15519442 -0.42786235 0.11450392
0.15691403 -0.30796814 0.15781952
0.17850915 -0.4238113 0.0953328
0.15124029 -0.4239504 0.112437144
0.20258677 -0.3790692 0.08778195
0.14760876 -0.42398605 0.116580196
0.12743255 -0.3606349 0.1537649
0.22489613 -0.33704305 0.08713901
0.14885096 -0.3160164 0.15310067
0.20036992 -0.39651197 0.08640453
0.14209205 -0.33502713 0.1550797
0.1144988 -0.38934854 0.15390263
0.1255579 -0.3502084 0.15591544
0.25841323 -0.27519402 0.08601655
0.16476974 -0.422033 0.10428736
0.17074005 -0.2525184 0.16463645
0.24632618 -0.3021578 0.09423064
0.14840141 -0.42669773 0.109039135
0.18849686 -0.40420827 0.088331714
0.16941579 -0.25963756 0.16148014
0.21529198 -0.371264 0.091744676
0.12022478 -0.36455104 0.15347269
0.13696927 -0.33371627 0.15323438
0.13369584 -0.42281258 0.13253501
0.24877326 -0.30750722 0.09006588
0.25055265 -0.30335552 0.08837767
0.18098588 -0.41232228 0.09083508
0.23926392 -0.30830178 0.09178457
0.15076162 -0.31393802 0.1613197
0.17969379 -0.41573915 0.0903196
0.21258019 -0.3593911 0.09145887
0.14614558 -0.31819257 0.1530011
0.24674237 -0.31039506 0.08807765
0.24285385 -0.30055794 0.08904266
0.12058222 -0.3724159 0.15194076
0.12116761 -0.39529362 0.1522763
0.14674711 -0.43208066 0.113289244
0.26039886 -0.27824554 0.0853613
0.2395177 -0.31428045 0.08568561
0.14962426 -0.30355555 0.15768164
0.17642722 -0.24193458 0.17019466
0.12357576 -0.4017341 0.14220043
0.1618727 -0.28060645 0.15549523
0.13922812 -0.32733768 0.16069071
0.13847417 -0.33839756 0.16118765
0.2292753 -0.33378166 0.08571562
0.24628371 -0.2990352 0.08598748
0.11496828 -0.38430962 0.1498341
0.15752435 -0.30033535 0.15321614
0.23554073 -0.32761586 0.09392087
0.26849443 -0.27064705 0.091203034
0.21976277 -0.34609866 0.08768915
0.25520167 -0.2943928 0.088361844
0.24318242 -0.31342494 0.093793124
0.17129698 -0.27997962 0.1563429
0.15831885 -0.28688657 0.1579981
0.24599984 -0.31288227 0.090433374
0.11403548 -0.38615274 0.154641
0.12939638 -0.35842597 0.15442193
0.18787478 -0.41040993 0.08745217
0.25643757 -0.29199022 0.09177911
0.17214416 -0.42532706 0.103370875
0.24461114 -0.31550956 0.08996798
0.21821539 -0.3576746 0.085651815
0.13882126 -0.3427236 0.15801322
-0.0069725364 -0.14403121 0.3311639
-0.10803395 -0.15922758 0.40646863
-0.04920254 -0.23129791 0.33207935
-0.027613737 -0.19307698 0.33326453
-0.022699133 -0.1830512 0.33300197
-0.09994946 -0.14952356 0.40735942
-0.1352545 -0.22001684 0.39888543
-0.016624913 -0.17148997 0.3330606
-0.09716992 -0.13459674 0.40270442
-0.105831124 -0.15467295 0.40633538
-0.14630759 -0.23230255 0.40084293
-0.124776095 -0.19000372 0.40020943
-0.031062007 -0.20171198 0.33539343
-0.11673533 -0.17392758 0.40543813
-0.061207943 -0.24526332 0.3323657
-0.11827358 -0.19300435 0.40502024
-0.11404616 -0.18582115 0.40237892
-0.095778406 -0.1466407 0.39945376
-0.1344646 -0.28687516 0.37451166
-0.12576525 -0.28631812 0.3752576
-0.031373806 -0.18347934 0.33561265
-0.028020412 -0.17856607 0.33361912
-0.0057449415 -0.1481667 0.3389045
-0.062036768 -0.26113537 0.33703586
-0.0245715 -0.18716258 0.3332198
-0.010632955 -0.15769525 0.33977354
-0.14083391 -0.275878 0.38878575
-0.010118492 -0.14950585 0.33883417
-0.14589642 -0.24023685 0.4044251
-0.06653487 -0.08309073 0.4012633
-0.07311793 -0.09653515 0.40633622
0.013044022 -0.13791993 0.32785782
-0.108470075 -0.16839671 0.40719607
-0.0599818 -0.2414642 0.33912444
-0.11763891 -0.17809752 0.4066095
-0.07976182 -0.27168795 0.34003615
-0.11056882 -0.16537313 0.39919084
-0.029403113 -0.19027758 0.3316757
-0.075474516 -0.091332845 0.40360755
-0.08701721 -0.28360295 0.33793652
-0.076434836 -0.103926815 0.39845756
-0.10613544 -0.28649834 0.3537683
-0.11028005 -0.29206014 0.36182535
-0.011035733 -0.15644991 0.33183643
-0.1141063 -0.17053822 0.40630656
-0.1454361 -0.22972846 0.40250322
-0.14130673 -0.27025378 0.38228554
-0.010129824 -0.15944389 0.33328763
-0.08491709 -0.11568771 0.40675685
0.021946162 -0.12900259 0.32556313
-0.05501642 -0.2296727 0.33759883
-0.035296038 -0.19243969 0.33373746
-0.08049089 -0.10327857 0.40484232
-0.06717192 -0.25480524 0.33314082
-0.0173513 -0.16380227 0.33176804
-0.0742313 -0.27166396 0.34181333
-0.13196401 -0.2870814 0.3776812
-0.0717112 -0.1000163 0.40547037
-0.06643815 -0.05958298 0.3853131
-0.13047276 -0.2147035 0.39996982
-0.08988643 -0.28945702 0.3471103
-0.1402067 -0.26992077 0.39218324
-0.14713493 -0.2668248 0.38977307
-0.14090347 -0.22760546 0.39826447
-0.13435139 -0.28452942 0.3716843
0.005641632 -0.14239201 0.32973439
-0.022243358 -0.1717003 0.34002948
-0.121210545 -0.2848941 0.36736524
-0.1225221 -0.1835255 0.4023689
-0.08292008 -0.28432265 0.3381989
-0.035166763 -0.19085887 0.3365969
-0.07017396 -0.09664434 0.40496337
-0.1374574 -0.21333797 0.40094322
-0.092010126 -0.2897225 0.34235746
-0.07241062 -0.060789138 0.38987142
-0.08274294 -0.2807811 0.34517726
-0.12360521 -0.19652644 0.39877266
-0.04844731 -0.23447922 0.33422685
-0.09232793 -0.1440632 0.40308183
-0.102215976 -0.28712085 0.34658897
-0.1397444 -0.24197654 0.40018654
-0.029379763 -0.19280589 0.34002388
-0.038167827 -0.20517428 0.34036827
-0.08751406 -0.2790935 0.3392451
0.014706016 -0.12808383 0.32583755
-0.089544676 -0.120054126 0.40380853
-0.02642253 -0.17602725 0.3387598
-0.07246425 -0.2616461 0.33586234
-0.08060218 -0.11577124 0.39905146
-0.11853243 -0.19285956 0.40060273
-0.14779471 -0.2383132 0.3999691
0.0039330795 -0.14118542 0.3274058
-0.09966394 -0.29165402 0.3457154
-0.101834945 -0.14959705 0.39897585
-0.014798239 -0.16937347 0.333978
-0.079124585 -0.10725223 0.40725148
-0.13883594 -0.2794133 0.3764911
-0.053783946 -0.24095207 0.33972585
-0.09955282 -0.14517033 0.40707448
-0.081780076 -0.12368935 0.40236676
-0.12939334 -0.2065303 0.40735614
-0.14296187 -0.2768763 0.3844388
-0.021343537 -0.18042506 0.33299664
-0.067638904 -0.092052825 0.4025268
-0.13503289 -0.20759852 0.4036558
-0.09860513 -0.13846925 0.40503773
-0.088434525 -0.12933318 0.40726298
-0.08224197 -0.12067075 0.39947796
-0.0600643 -0.25241786 0.33212894
-0.0025990605 -0.1392416 0.33488822
-0.1179699 -0.29363284 0.36555502
-0.038161144 -0.20435955 0.33169937
-0.052215785 -0.23823726 0.33235604
-0.0695346 -0.09099576 0.40484807
-0.14693172 -0.25098205 0.40169603
0.018409997 -0.12666865 0.3238336
-0.06593674 -0.26373285 0.33997717
-0.07279144 -0.079797156 0.3944706
-0.12421428 -0.2838746 0.3682022
-0.14863844 -0.25811026 0.39631838
-0.11669401 -0.19100249 0.40329653
-0.07299153 -0.069459334 0.3898101
-0.07702291 -0.05643464 0.37897784
-0.06915255 -0.08878906 0.39605743
-0.061657153 -0.2502218 0.34035254
-0.0430727 -0.21085903 0.33221498
-0.13214277 -0.27734685 0.37932324
-0.14590882 -0.24754022 0.39421573
-0.10802312 -0.15623161 0.4046921
-0.064184666 -0.2601647 0.3399591
-0.085304074 -0.11239291 0.40455928
-0.14328253 -0.22453338 0.40177894
-0.102339886 -0.16219062 0.40097904
-0.090316564 -0.28550974 0.34893835
-0.04604339 -0.2289141 0.3335182
-0.12710375 -0.19360149 0.40522188
-0.018757112 -0.16156901 0.33890802
-0.04941333 -0.23418027 0.33915946
-0.096987344 -0.15081204 0.4002214
0.022211038 -0.13375367 0.31826693
-0.12567817 -0.19945043 0.39869404
-0.1382655 -0.21643466 0.4060377
-0.09979905 -0.14728758 0.39875013
-0.0143241435 -0.15462321 0.33246875
-0.025669366 -0.18452565 0.33182615
-0.050566837 -0.22997275 0.34035206
-0.033958472 -0.20496365 0.3330997
-0.013316534 -0.16756383 0.3356481
-0.0838677 -0.12777197 0.4030957
-0.0154097155 -0.15383661 0.33803833
0.021055408 -0.13152514 0.32650176
-0.140472 -0.21857741 0.40143976
-0.1319848 -0.28873864 0.37358296
-0.082979076 -0.28400925 0.34474638
-0.14529285 -0.26054066 0.3980316
-0.122479215 -0.28937212 0.36062348
-0.10535304 -0.28993553 0.35829642
-0.030482873 -0.18357447 0.338561
-0.099783435 -0.28786626 0.3541496
-0.14345716 -0.26955348 0.39284348
-0.016524173 -0.16512814 0.340339
-0.024669841 -0.1894836 0.33638406
-0.11729537 -0.2866256 0.36016905
-0.061837465 -0.24862309 0.33188802
0.005528167 -0.13323238 0.32631522
-0.0012874454 -0.1417697 0.3372286
-0.06611395 -0.07936742 0.4004535
0.0035489276 -0.13742504 0.32625553
-0.10510139 -0.29516393 0.35264927
-0.025070265 -0.17244384 0.3340006
-0.14899206 -0.244812 0.39973527
-0.0659055 -0.26089156 0.33180818
-0.1306408 -0.20733139 0.39872068
-0.12847346 -0.19503698 0.40226644
-0.0757824 -0.2702534 0.33353662
-0.009764053 -0.16007161 0.33767307
-0.07689081 -0.11193041 0.40014386
-0.07062966 -0.06368616 0.39277577
-0.10098991 -0.2850514 0.34982857
-0.1436573 -0.2580128 0.398991
-0.1185396 -0.29321608 0.3580379
-0.12573704 -0.20838809 0.40300205
-0.09753008 -0.1370596 0.400447
-0.14356387 -0.24027696 0.39613593
-0.12461999 -0.29277074 0.36717314
-0.057743184 -0.2395622 0.33208445
-0.1310494 -0.20411944 0.4066558
-0.121973634 -0.28535149 0.3636711
-0.07785149 -0.27282164 0.34222174
-0.1416606 -0.22577253 0.40634876
-0.12633237 -0.20220086 0.39881676
-0.13799426 -0.22564934 0.3985911
-0.06483552 -0.07399818 0.39513698
-0.06627964 -0.08011848 0.39378738
-0.09613193 -0.15027079 0.40510464
0.014294989 -0.13471131 0.3302785
-0.08294589 -0.1244199 0.40550697
-0.1414957 -0.26399434 0.39549485
-0.10523655 -0.15882167 0.4073742
-0.015795372 -0.17234692 0.3358217
-0.07442386 -0.2663954 0.3340689
-0.09595384 -0.2846577 0.34309947
-0.11475521 -0.29118568 0.35451347
-0.017718934 -0.17333302 0.3390659
-0.08184986 -0.27461517 0.33643076
-0.13332611 -0.21511331 0.3987592
-0.044249013 -0.21453322 0.33191925
-0.11765129 -0.18382932 0.40735647
-0.07353825 -0.26843426 0.34105426
-0.14238428 -0.24694228 0.39538765
-0.13244517 -0.21060738 0.398724
-0.14360425 -0.24300545 0.39549655
-0.03288033 -0.19121154 0.33221987
-0.070277825 -0.08469998 0.40349406
-0.08857317 -0.28308377 0.34768945
-0.07083413 -0.25971022 0.33785993
-0.0058809817 -0.15455963 0.33589017
-0.022518747 -0.16900447 0.33898753
-0.067991644 -0.084912725 0.3949564
-0.048044555 -0.22691569 0.34028423
-0.12564693 -0.2879396 0.36343122
-0.13033354 -0.27941167 0.37483203
-0.14179713 -0.25678807 0.39142615
-0.14154728 -0.27583295 0.37999696
-0.07399833 -0.0856517 0.40209824
0.019268334 -0.13109717 0.31743237
-0.1281592 -0.20998412 0.3998568
-0.1417939 -0.2667257 0.39444652
-0.030283473 -0.19651115 0.33251166
-0.019908585 -0.16646382 0.33984843
-0.06510547 -0.07022138 0.39431146
-0.14727093 -0.24022761 0.39762393
-0.11445489 -0.1815412 0.40692765
-0.048098125 -0.2169678 0.33817366
-0.12552634 -0.28286728 0.3718267
-0.02881103 -0.17873493 0.33689207
-0.06923881 -0.057785466 0.38802904
-0.08418636 -0.12595245 0.4001323
0.0014718398 -0.14335951 0.3285931
-0.11888108 -0.2879337 0.36870483
-0.008377053 -0.14434654 0.3354731
-0.1482038 -0.2601054 0.39107978
-0.07010136 -0.080542 0.39283705
-0.060750313 -0.2585741 0.33721003
-0.06269418 -0.24440481 0.33752188
-0.077462696 -0.26898146 0.3372836
-0.056286566 -0.24278721 0.34028423
-0.08551549 -0.28141847 0.33692577
-0.024654828 -0.17246845 0.33864647
0.029459953 -0.13242394 0.31923816
-0.030716538 -0.18658048 0.3396786
-0.04062736 -0.20169896 0.33720326
-0.0038167462 -0.15124273 0.33683002
-0.10332015 -0.28736013 0.355012
-0.09492869 -0.138336 0.39872286
-0.13117272 -0.20053783 0.40163726
-0.13842587 -0.23490627 0.40348107
-0.024432734 -0.18115206 0.34032497
-0.069379896 -0.06833933 0.38563186
-0.0897792 -0.13917044 0.40326452
-0.13900337 -0.21942006 0.40665355
-0.021318458 -0.17655236 0.3401273
-0.12755254 -0.28445092 0.37711686
-0.12529306 -0.29182476 0.37086326
-0.028393522 -0.19624275 0.3372545
-0.07122721 -0.06305102 0.3814903
-0.041530944 -0.21875522 0.33928078
-0.1135024 -0.16681777 0.40128922
-0.122332275 -0.2910145 0.3707062
-0.061508134 -0.25304192 0.34025517
-0.12481389 -0.19892664 0.407328
-0.1287106 -0.2889595 0.36612916
-0.12623543 -0.19071068 0.40381628
-0.13307008 -0.20651866 0.4060735
-0.066510245 -0.086682126 0.3976733
-0.11770223 -0.28594908 0.36312452
-0.06990876 -0.2633609 0.34059465
-0.100209676 -0.15601748 0.39979246
-0.008169211 -0.15737434 0.33601707
-0.07885961 -0.05317653 0.374817
-0.11786608 -0.18076257 0.3989359
-0.13779472 -0.27182782 0.38946348
-0.13484234 -0.22153631 0.40671667
-0.095689535 -0.29188195 0.35013846
-0.07663925 -0.10478719 0.40724587
-0.013506733 -0.15668038 0.34026548
-0.091687456 -0.13500571 0.39876705
0.026605487 -0.1336813 0.31803834
-0.034725867 -0.19292626 0.33916485
-0.13297665 -0.27852702 0.3748051
-0.007887267 -0.15572503 0.33845487
-0.09520319 -0.2836035 0.34804368
-0.14045882 -0.23078424 0.40663174
-0.077915 -0.05334285 0.3721106
0.0008574426 -0.13858813 0.32749832
-0.13605645 -0.21092165 0.40069717
-0.13883221 -0.22699769 0.40694824
-0.08781655 -0.286576 0.33977363
-0.092397995 -0.1278593 0.4001063
-0.011144191 -0.16257328 0.33780712
-0.09736196 -0.15347013 0.4041158
-0.10774703 -0.1622286 0.40723655
-0.1478967 -0.26442966 0.39226002
-0.12653504 -0.19242896 0.40083468
0.00089935213 -0.13914046 0.33588976
-0.066082686 -0.066477835 0.39386287
-0.1112407 -0.166583 0.4068069
-0.085205674 -0.11867988 0.39882058
-0.023941115 -0.16957738 0.33476493
-0.10791075 -0.2934254 0.35925788
-0.13769749 -0.22957316 0.40583646
-0.07208371 -0.10321892 0.40457407
0.0070321485 -0.13141051 0.32818675
-0.13396482 -0.27507997 0.3833093
-0.086656176 -0.1246717 0.39869678
-0.0318013 -0.19941084 0.33949882
-0.0015164688 -0.14884219 0.33557528
0.016962312 -0.13499129 0.3279702
-0.11427169 -0.17640671 0.40736997
-0.07980435 -0.1198582 0.40228826
-0.048881404 -0.22269918 0.3399573
-0.026711158 -0.17469284 0.3352065
-0.10122491 -0.15642202 0.40682423
-0.013026968 -0.15126821 0.3383002
-0.10899773 -0.16832356 0.39876482
-0.06578331 -0.267211 0.33667976
-0.019062765 -0.17832333 0.33486784
-0.07417103 -0.055328585 0.3850296
-0.03477093 -0.20892385 0.33624694
-0.07224975 -0.07375711 0.397399
-0.09084706 -0.12489132 0.4000964
-0.07569868 -0.058256164 0.38314748
-0.08595052 -0.2828912 0.34677628
-0.12055371 -0.17963922 0.40282196
-0.06486943 -0.07763732 0.3964965
-0.1280736 -0.20509207 0.3987679
-0.11325413 -0.29441667 0.35564438
-0.09036454 -0.28008425 0.34293023
-0.06829008 -0.2681092 0.3401251
-0.085875615 -0.28003836 0.34560013
-0.06759318 -0.25326887 0.33616558
-0.009791508 -0.14614776 0.3331524
-0.13656327 -0.2762285 0.3769334
-0.07272422 -0.2764294 0.33732122
-0.14072773 -0.221238 0.39995742
-0.10972051 -0.15918154 0.40421993
-0.07158365 -0.054134034 0.38525
-0.095201544 -0.13146266 0.40457785
-0.12082334 -0.29372513 0.36185402
-0.07422407 -0.2642907 0.33633
-0.12899737 -0.2856569 0.366756
-0.088968575 -0.13237861 0.39917305
-0.07885434 -0.10764964 0.39872062
-0.013064645 -0.1641691 0.33916804
-0.037061386 -0.19548318 0.3340457
-0.08977236 -0.28171554 0.33940735
-0.11415242 -0.28668556 0.360118
-0.10755989 -0.29516765 0.3542238
-0.095250174 -0.29010558 0.34287634
-0.13448575 -0.280715 0.3727835
-0.1249087 -0.18809092 0.40354908
-0.08723945 -0.13278443 0.405423
-0.0982558 -0.2877541 0.34348142
-0.0337416 -0.20505734 0.33863413
-0.1058203 -0.28717732 0.3499682
-0.14416084 -0.22808516 0.40456122
0.0046561137 -0.13568285 0.3340461
-0.122837156 -0.28868067 0.3722655
-0.08697941 -0.13295242 0.4012259
-0.14134578 -0.22008178 0.40421993
-0.051591486 -0.22272365 0.3370732
-0.06695619 -0.08981911 0.39955473
-0.031393804 -0.1898129 0.34012815
-0.13233379 -0.2200816 0.4010756
-0.051997684 -0.23590213 0.34009054
-0.1445512 -0.26763108 0.38501218
-0.12260687 -0.28595188 0.37144983
-0.13767238 -0.21274704 0.4038334
-0.06849088 -0.27111274 0.33795792
-0.051155962 -0.2388902 0.338445
0.0060763285 -0.13219759 0.3307015
-0.1258202 -0.28911722 0.37409896
-0.07132965 -0.075729616 0.3908372
-0.05558131 -0.23687059 0.3318473
-0.0525252 -0.23262107 0.34035072
-0.1175202 -0.28869843 0.3572694
-0.10837786 -0.17480746 0.40386292
-0.100601345 -0.14354268 0.40016377
-0.0065958053 -0.14731209 0.33022884
-0.042007923 -0.21133868 0.3402434
-0.028328046 -0.18199345 0.33235076
-0.025382914 -0.17946556 0.33174
-0.109945685 -0.17554414 0.40012866
-0.084083274 -0.11147724 0.40028924
-0.14390402 -0.25966817 0.38890013
-0.07142177 -0.08864132 0.40474284
-0.07140183 -0.27327067 0.3403697
-0.06628156 -0.2663612 0.33385888
-0.07810444 -0.054469906 0.37723827
-0.050164364 -0.22000644 0.33490434
-0.0081027 -0.15429369 0.33203053
-0.13761447 -0.27530167 0.38827485
-0.0674365 -0.06393269 0.38355947
-0.08051774 -0.11060197 0.39872205
0.011214346 -0.1375938 0.3312897
-0.08270102 -0.28153187 0.33624658
-0.0693979 -0.07999754 0.4020213
-0.002039805 -0.13847083 0.33023784
-0.074581236 -0.10985277 0.4026931
-0.027065627 -0.19065619 0.3393934
-0.12138194 -0.18532959 0.40661368
-0.10696681 -0.17153111 0.40135294
-0.04502116 -0.2106165 0.3378592
-0.07298425 -0.06767533 0.39260668
-0.06813575 -0.09469812 0.4006942
-0.14579873 -0.27102166 0.38817734
-0.13490294 -0.27420694 0.38012898
-0.07380092 -0.061224833 0.381289
-0.11087534 -0.29388067 0.3531623
-0.14670649 -0.24383987 0.3957364
-0.14459826 -0.2669576 0.39432865
-0.14132714 -0.23127726 0.39789647
-0.14873852 -0.24919571 0.3955776
-0.081829935 -0.11117346 0.4071079
-0.14822997 -0.24238685 0.40164918
-0.12065324 -0.19419014 0.39936846
-0.06812317 -0.07713891 0.39103854
-0.015566789 -0.1605007 0.33174965
-0.033380523 -0.19959821 0.33184934
-0.06966947 -0.0735364 0.3890696
-0.06412864 -0.26458082 0.33700287
-0.06459165 -0.24749386 0.33549464
-0.13820793 -0.22243294 0.39869016
-0.12726879 -0.20857692 0.40613246
-0.05292414 -0.24309292 0.33775222
-0.06781563 -0.077050105 0.40045387
-0.06947502 -0.26598874 0.33228073
-0.09835717 -0.15408841 0.40066087
-0.030716144 -0.19926426 0.33341965
-0.06186746 -0.2429151 0.33434087
-0.1488709 -0.26038176 0.39392054
-0.04443738 -0.22708905 0.33734778
-0.06026257 -0.23935904 0.33508772
-0.05707168 -0.25089645 0.33406392
-0.0904202 -0.28485265 0.33937997
0.008141205 -0.14054675 0.32927078
-0.12847164 -0.21341881 0.40205976
-0.04381199 -0.21451591 0.3402124
-0.07274946 -0.090996206 0.39661175
0.00616996 -0.14131147 0.33346394
-0.072669476 -0.105562806 0.40186155
-0.08863262 -0.13643575 0.40166378
-0.14108558 -0.2538659 0.3939116
0.004028119 -0.13960452 0.33544523
-0.1132888 -0.17833613 0.39895767
-0.065637514 -0.06335022 0.38727894
-0.020440504 -0.16376175 0.3337983
-0.14288047 -0.24397051 0.4039097
-0.06959651 -0.07490047 0.39950427
-0.11972313 -0.18297753 0.3991971
-0.13896608 -0.23290572 0.4054829
-0.039633237 -0.2152181 0.33922195
-0.1407302 -0.24771875 0.3987056
-0.10589531 -0.1639998 0.39894262
-0.050079696 -0.22701347 0.3317411
0.002165638 -0.14521635 0.33420876
-0.14422064 -0.26396587 0.39641416
-0.09899734 -0.28497547 0.3458972
-0.06752219 -0.25808352 0.33983046
-0.097371146 -0.29053915 0.35293633
-0.00584694 -0.1441169 0.33768478
-0.06928688 -0.09377552 0.40497085
-0.1442273 -0.2748094 0.38713187
-0.02175261 -0.18187036 0.33868635
-0.05763337 -0.25126788 0.33852935
-0.12874551 -0.19768116 0.40019163
-0.13953051 -0.26449284 0.38768137
-0.12036647 -0.2868253 0.36075336
-0.140969 -0.2439557 0.3970724
-0.052211113 -0.22696659 0.33932364
-0.115704834 -0.29512477 0.35905424
0.018384807 -0.13109691 0.32807752
-0.0918928 -0.14148112 0.40562087
-0.06510405 -0.06574473 0.38975948
-0.10502355 -0.15921372 0.39870167
-0.06717247 -0.0620671 0.39056462
-0.07350452 -0.05784715 0.38716528
-0.14726877 -0.2455921 0.40277088
-0.11748003 -0.17371243 0.40273345
-0.017167889 -0.17503205 0.33632767
-0.11567524 -0.18836996 0.40469643
-0.13428119 -0.21525604 0.40736562
-0.1312533 -0.28345293 0.38053387
-0.13820753 -0.26696458 0.39009604
-0.07317853 -0.10005664 0.39829144
-0.10035689 -0.29233524 0.35427547
-0.094890654 -0.28803983 0.35162264
-0.08098453 -0.27438068 0.34224987
-0.13964629 -0.21643807 0.40318167
-0.12696508 -0.2822728 0.37514332
-0.14392322 -0.27013823 0.3836277
-0.036746144 -0.20942764 0.3393382
-0.14162785 -0.24086593 0.40434843
-0.14727113 -0.25614658 0.39909446
-0.10940379 -0.2951797 0.35646838
-0.09317862 -0.13222682 0.40691042
-0.14112446 -0.24993679 0.39596444
-0.13834354 -0.27015865 0.38294792
-0.046338476 -0.21307936 0.33428115
-0.07242137 -0.07023228 0.39517254
0.026982784 -0.13285574 0.3149229
-0.14165847 -0.2787438 0.38239333
-0.042136677 -0.22056603 0.33303872
-0.032084703 -0.19468983 0.34034577
-0.07248686 -0.092775024 0.40594956
-0.07346 -0.07520461 0.3950936
-0.0030225143 -0.1500738 0.33247834
-0.0947349 -0.14539543 0.4063965
-0.07232745 -0.07757563 0.39265925
-0.14722764 -0.23508705 0.4026437
-0.06318509 -0.04778888 0.38743174
-0.04464843 -0.22308573 0.33980516
-0.07781434 -0.11025833 0.40707058
-0.050156906 -0.22317128 0.33260065
-0.07495488 -0.09236836 0.39821395
-0.07569632 -0.27936518 0.33830762
-0.07321966 -0.0723504 0.3919257
-0.07782228 -0.101456404 0.40641046
-0.07432771 -0.06291855 0.38420832
-0.016905382 -0.15684429 0.33389515
-0.044808865 -0.21003741 0.33436507
-0.1418457 -0.22311684 0.4055305
-0.14195286 -0.25515878 0.3991027
-0.11613198 -0.1711135 0.40258485
-0.1362077 -0.27841517 0.37522906
-0.047060274 -0.21734434 0.33255923
-0.14088416 -0.24497303 0.4018765
0.0084936395 -0.13536094 0.3334777
-0.12947387 -0.20232192 0.39904737
-0.11554535 -0.17350024 0.3996107
-0.13967624 -0.2816727 0.38000256
-0.07619181 -0.27673513 0.34253454
-0.13147166 -0.28808618 0.36936873
-0.051239632 -0.24049474 0.33518204
-0.1009108 -0.16011488 0.40450668
-0.1431166 -0.24944998 0.3938362
-0.11482237 -0.29132056 0.36538154
-0.07694791 -0.0936078 0.40164542
-0.14580922 -0.23462509 0.40508354
0.02257263 -0.1263611 0.31728852
-0.068372324 -0.0708793 0.39734125
-0.12246398 -0.20108968 0.4010835
-0.06095463 -0.25825304 0.3339763
-0.057945333 -0.25350174 0.3356464
-0.07260198 -0.26806325 0.3326184
-0.0858681 -0.11503083 0.4002335
-0.022038653 -0.16981187 0.33237198
-0.0120434165 -0.1641719 0.3340525
-0.13604063 -0.2100854 0.40454698
-0.025974534 -0.17645162 0.33265027
-0.13972852 -0.2625204 0.39322358
-0.026360177 -0.1926851 0.33653185
-0.14044261 -0.25721055 0.39563042
-0.070161365 -0.26979038 0.3331079
-0.097972855 -0.29300606 0.3479957
-0.018303081 -0.15837882 0.3364993
-0.014094159 -0.15940443 0.34035763
-0.117810115 -0.294918 0.36215693
-0.080011815 -0.10338448 0.4001717
-0.14104815 -0.27335125 0.39064264
-0.090197995 -0.280989 0.34595206
-0.07225369 -0.09429742 0.39739162
-0.13188124 -0.20189361 0.40427735
-0.11990046 -0.19679683 0.40427184
-0.015370809 -0.1665538 0.33217734
-0.067100495 -0.08706191 0.40210944
-0.14575143 -0.25687468 0.3903578
-0.081452295 -0.28465867 0.34165573
-0.029827155 -0.18095058 0.33468616
-0.06659303 -0.258185 0.3318309
-0.07072251 -0.07734176 0.40051094
-0.05843775 -0.24488479 0.34035683
-0.09049073 -0.13279042 0.40733507
-0.1322796 -0.2180759 0.40620598
-0.046342254 -0.23115116 0.3355322
-0.14894724 -0.25236854 0.39875615
-0.1054052 -0.15048271 0.40300775
-0.07569771 -0.110814705 0.40520006
-0.0782354 -0.115970865 0.40112233
-0.10381187 -0.16338128 0.40614486
-0.073729 -0.06443352 0.3899575
-0.13541076 -0.2273915 0.40402547
-0.12736979 -0.2831238 0.36851197
-0.13027322 -0.21709797 0.40267614
-0.11297296 -0.289606 0.36366087
-0.11182815 -0.18000196 0.40554038
0.02201546 -0.13448249 0.32143915
-0.06558807 -0.08281674 0.39661062
-0.11362742 -0.2938711 0.3630503
-0.106170036 -0.1669766 0.40652758
-0.10689394 -0.15359351 0.40203732
-0.064011976 -0.24913697 0.3390856
0.0013262182 -0.1428284 0.3366029
-0.043083943 -0.20609435 0.33643985
-0.0469535 -0.21398419 0.33736092
-0.08251872 -0.10773049 0.4052105
-0.14591035 -0.26861298 0.39176896
-0.08541283 -0.28702193 0.344033
-0.10934898 -0.28677362 0.35424203
-0.11085614 -0.1774123 0.40591142
-0.037364304 -0.21146776 0.33307618
-0.13373229 -0.2779752 0.38405693
-0.11930166 -0.18949635 0.40716228
-0.033950202 -0.19571462 0.3317766
-0.054595523 -0.24655584 0.33458313
-0.0035054013 -0.14715724 0.33014643
-0.14064065 -0.2354865 0.40565127
-0.068191774 -0.059687123 0.38036326
-0.13771904 -0.28107837 0.38406262
-0.0075775236 -0.1525985 0.33937046
-0.07343161 -0.07789492 0.397188
-0.076574236 -0.09964874 0.39837748
-0.115659446 -0.18250932 0.39891028
-0.020426407 -0.17338145 0.33171532
-0.079176165 -0.2824629 0.33849162
-0.07712364 -0.27585986 0.33422032
-0.08551176 -0.1298136 0.40099835
0.003513053 -0.13393648 0.3316409
-0.08183632 -0.106422275 0.4007753
-0.04101651 -0.20475796 0.33904526
-0.073051006 -0.26528394 0.33999392
-0.1393918 -0.238048 0.4031256
-0.11281427 -0.18093449 0.4000713
-0.033284165 -0.18716374 0.33571607
-0.09279543 -0.28208545 0.34223983
-0.11374359 -0.16712111 0.4045046
-0.12996462 -0.28040558 0.37870675
0.0007014796 -0.1363182 0.33303383
-0.0951805 -0.13516212 0.39935857
-0.0041069016 -0.14134601 0.33663964
-0.055723265 -0.24903533 0.33691674
0.011804618 -0.13391936 0.32200634
-0.08576058 -0.12632069 0.40691686
-0.1390203 -0.2680024 0.38475072
-0.13842693 -0.2742942 0.37868017
-0.030265473 -0.19353172 0.33184212
-0.0912835 -0.12349297 0.4039429
-0.055340223 -0.23105544 0.3337197
-0.10457751 -0.2938851 0.3563002
-0.14876853 -0.25510645 0.3937127
-0.12007792 -0.28996766 0.35860416
-0.08751861 -0.2868516 0.34699488
-0.117470846 -0.18747231 0.39922476
-0.069719814 -0.27304626 0.33620462
-0.12418625 -0.29191288 0.36337632
-0.08454327 -0.1185745 0.4073462
-0.077512935 -0.11378282 0.40562364
-0.08984798 -0.12539914 0.40681088
-0.04158265 -0.2218203 0.3368947
0.024681874 -0.13356283 0.3218012
-0.098816186 -0.13981158 0.40030885
-0.12117746 -0.19068371 0.39869624
-0.05248846 -0.2247136 0.33446065
-0.097119704 -0.14277644 0.40734395
-0.09917946 -0.29344246 0.35086727
-0.066504195 -0.07503908 0.39860845
-0.0876935 -0.2785937 0.34294885
-0.07033725 -0.26193 0.3327086
-0.14274482 -0.23666032 0.39706972
-0.14664106 -0.26263392 0.38855276
-0.036989383 -0.21279627 0.33725142
-0.08425538 -0.10991393 0.40387708
-0.039453216 -0.20726232 0.3316854
-0.11638348 -0.2880804 0.36623302
-0.015424989 -0.1698509 0.33860347
-0.10183439 -0.28584504 0.3525165
-0.022185698 -0.18433446 0.33715603
-0.09204769 -0.28930062 0.34941036
-0.057336673 -0.2439332 0.33166057
-0.0475759 -0.23155037 0.33871004
-0.03815368 -0.19695285 0.33723253
-0.13077691 -0.21492592 0.4063319
-0.065098174 -0.2556837 0.34023127
0.001783967 -0.13494968 0.3296243
-0.07737877 -0.052804343 0.37999225
-0.04938344 -0.23661917 0.3373407
-0.064938225 -0.070009045 0.39031646
-0.089326546 -0.12917158 0.3986978
-0.078527436 -0.11712097 0.40428203
-0.12543222 -0.20551485 0.4001909
-0.13044885 -0.20944172 0.4073423
-0.13875006 -0.23429704 0.39969683
-0.09378514 -0.13074261 0.40000007
-0.0915698 -0.1382766 0.40669507
-0.080129355 -0.27644035 0.3348751
-0.13192874 -0.2040304 0.4000826
-0.14028504 -0.23909286 0.3981533
-0.018736169 -0.16790427 0.33167553
-0.07200779 -0.050159335 0.3800327
-0.14734054 -0.2621394 0.3962781
-0.018328272 -0.17515913 0.33323714
-0.084156 -0.27820387 0.3440959
-0.09087469 -0.13940445 0.40045768
-0.03635574 -0.19622818 0.33923617
-0.09453989 -0.292032 0.3466741
-0.13882723 -0.22310111 0.40726233
-0.12874539 -0.2910223 0.37107176
-0.124042615 -0.19343321 0.39882523
-0.118823916 -0.176352 0.4033357
-0.0015366897 -0.14221056 0.32844377
-0.14245105 -0.26212502 0.3874942
-0.14883162 -0.24838227 0.40089172
-0.14164768 -0.22506425 0.3991536
-0.093984045 -0.14727086 0.40331042
-0.08017024 -0.27969122 0.33560494
0.015388049 -0.1362803 0.3235135
-0.012178943 -0.14875461 0.3347999
-0.022635847 -0.16668758 0.33602712
-0.107584804 -0.16138476 0.39887527
0.0069702715 -0.13835302 0.33417723
-0.075111486 -0.053553104 0.38301992
-0.005691923 -0.15177892 0.33171597
-0.09778999 -0.2848423 0.35051307
-0.001233235 -0.14488128 0.32928687
-0.06617834 -0.2519606 0.33830133
-0.12496288 -0.28490734 0.3653323
-0.1426051 -0.2654862 0.38529754
-0.13714841 -0.26978958 0.386896
-0.08398367 -0.2782207 0.33649552
-0.10668855 -0.17087942 0.4048585
-0.02065166 -0.16323142 0.33720633
-0.07019942 -0.25858968 0.3345877
-0.041044794 -0.21425977 0.33183932
-0.033323295 -0.2060903 0.33566153
-0.0358058 -0.20853606 0.33310807
-0.097233936 -0.14752972 0.40708786
-0.071938425 -0.08258839 0.402336
-0.070188604 -0.096708186 0.39888465
-0.1444644 -0.23763204 0.40552974
-0.07296823 -0.27358374 0.3335957
-0.14432004 -0.23379076 0.39794838
-0.001687631 -0.1454348 0.33781743
-0.0970441 -0.13586488 0.40533188
-0.08867563 -0.12210082 0.39951283
-0.04177513 -0.21721794 0.33213285
-0.056566305 -0.23335257 0.3382305
-0.07868878 -0.28070962 0.34285557
-0.14029299 -0.2599321 0.39447623
-0.045360483 -0.21919356 0.34036517
-0.12886702 -0.20216015 0.4071575
-0.10922941 -0.17139173 0.40695238
-0.07225095 -0.102556296 0.3999062
-0.110699505 -0.2887149 0.3522318
-0.066410646 -0.07280288 0.38965267
-0.11375889 -0.28799808 0.35517502
-0.13509953 -0.22582883 0.40089795
-0.14749184 -0.23813465 0.40274915
-0.039149843 -0.1987136 0.33506668
0.010762505 -0.13724619 0.32432306
-0.04887656 -0.21747085 0.33501777
-0.081674844 -0.117329866 0.40712023
-0.07343349 -0.06625995 0.3864733
-0.08769064 -0.11715619 0.40480635
-0.123377785 -0.18997274 0.40681073
-0.025723167 -0.19011074 0.3337571
-0.040058687 -0.20862639 0.34035394
-0.070712104 -0.06637568 0.384157
-0.13885666 -0.27196693 0.38067204
-0.08930052 -0.1366018 0.40555608
-0.044626705 -0.21906358 0.3316527
-0.103388004 -0.14803162 0.4006815
-0.09790032 -0.14317034 0.39881483
-0.07382745 -0.08354113 0.3966377
-0.10939929 -0.28898776 0.36079085
-0.11238252 -0.17041737 0.39890403
