0.085414685 0.033363342 -0.2066653
0.0991768 0.20423765 -0.22559574
0.29740146 0.28962803 -0.1997272
0.11701358 0.26724577 -0.25889587
0.15908739 0.008758388 -0.17331427
0.090733945 0.10047771 -0.22300935
0.1061264 0.13796744 -0.22764507
0.24645409 -0.034746975 -0.11581784
0.27126083 0.19011068 -0.15949343
0.095515065 0.25296912 -0.26278725
0.07598667 0.18452871 -0.22862111
0.26297113 -0.017127581 -0.12859228
0.15448353 -0.06717621 -0.15431069
0.15692817 0.011442479 -0.17482632
-0.029680468 0.08124362 -0.2573524
0.056223165 0.0028373972 -0.20891728
0.115652926 -0.042808637 -0.15238926
0.27615717 0.29888394 -0.20993213
0.1896 0.0841088 -0.18278563
0.05225519 0.066922106 -0.20519401
0.12723905 0.17071564 -0.20631886
0.36218747 0.22221382 -0.15793826
0.27373263 0.18102308 -0.15612508
0.34476587 0.19961372 -0.13548714
0.05978284 0.19654709 -0.23775426
0.22669351 0.2811465 -0.22299898
0.055496164 0.16833864 -0.2542295
0.045154974 0.16902044 -0.2581563
0.1469792 0.19638312 -0.22876632
0.075878754 -0.026697032 -0.17116454
0.38894352 0.20506434 -0.12992696
0.21660823 -0.013869572 -0.14634474
0.025777008 0.07009738 -0.23824032
0.38281196 0.18783425 -0.14111862
0.2768268 0.2487411 -0.17343837
0.052683275 -0.010461032 -0.20657797
0.196228 -0.06470714 -0.13988006
0.30182678 0.27341494 -0.17111003
0.2710783 0.09668644 -0.1341294
0.21597245 0.31563142 -0.2362648
0.23482642 0.20450702 -0.19919576
0.24014866 0.1330442 -0.15521573
0.19652325 -0.07499829 -0.13697208
0.02648887 0.005489886 -0.2203968
0.11921948 0.051633585 -0.17680573
0.3010071 0.052357845 -0.13383798
0.2829039 0.022307947 -0.13220796
0.0748767 0.16383421 -0.22338936
0.06955955 0.2549292 -0.25010878
-0.010894969 0.023395292 -0.21619284
0.16571508 0.20854652 -0.2252988
0.10720981 0.31911692 -0.26271576
0.18394066 -0.035338588 -0.12971726
0.17300066 -0.05625058 -0.12798288
0.08342914 -0.05819193 -0.1739588
0.11081847 0.15085292 -0.20685285
0.22616127 0.13750646 -0.18409342
0.19960588 -0.020080097 -0.1282032
0.1477931 -0.03983528 -0.16417338
0.3389228 0.11681464 -0.13766588
0.0796954 -0.05545947 -0.16765915
0.15592524 0.14747083 -0.2122156
0.11793679 0.015410159 -0.16740996
0.17376095 -0.09592686 -0.11690806
0.03032634 -0.028475277 -0.20428103
0.28080866 0.19262867 -0.15672404
0.29282528 0.21511547 -0.1811
0.001220949 0.1228534 -0.26148403
0.15982261 0.16152869 -0.19202998
0.29845923 0.27115843 -0.19431652
0.29095644 0.25805542 -0.19346467
0.35556328 0.26486266 -0.14934148
0.30799717 0.11889095 -0.12681673
0.14256671 0.35109562 -0.2724747
-0.015801542 0.06117692 -0.25085467
0.006742686 0.14569356 -0.24310112
0.16519023 0.167559 -0.19172941
0.26725128 0.18574995 -0.159757
0.21458551 0.28408915 -0.22818065
0.038881462 0.017302983 -0.21912876
0.24873787 0.09589027 -0.14199482
0.1323213 0.03358939 -0.18975699
0.12010204 0.0032238662 -0.18591243
0.29402754 0.23675236 -0.186555
0.16639686 0.30961722 -0.2525635
0.12189603 0.17829926 -0.210316
0.15689534 0.27335745 -0.22352809
0.3473521 0.18760239 -0.15388447
0.15667391 -0.041735284 -0.13784105
0.1462277 0.1707773 -0.22206792
0.26077026 0.1500422 -0.15238197
0.063068904 0.2500448 -0.25112742
0.22729678 0.14318287 -0.16262525
0.056392636 -0.02415093 -0.20150983
0.05142905 0.20852932 -0.26664054
0.26111096 0.022433009 -0.14012629
0.20569873 0.24853316 -0.22171763
0.26297373 -0.0073272884 -0.1178728
0.17997596 0.01756147 -0.14555088
-0.012733921 0.10143052 -0.26070148
0.2925921 0.10937786 -0.15240324
0.33537346 0.16194096 -0.15123343
0.365394 0.17565656 -0.121502884
0.16108659 0.14088506 -0.20855549
0.3238731 0.23408088 -0.17503026
0.08989739 -0.06169244 -0.16870216
0.16986653 0.16087687 -0.18821865
0.26779607 0.20996839 -0.18875466
0.17542022 0.09450863 -0.16814378
0.11509672 -0.038352516 -0.1538034
0.26017064 0.061433747 -0.15108204
0.23886955 0.3188449 -0.206253
0.23163983 0.11631064 -0.15373941
0.31860095 0.077880815 -0.13441977
0.18377501 0.35921752 -0.25977743
0.19132288 0.22021663 -0.21921086
-0.05561868 0.03321512 -0.23504576
0.19107318 0.29645973 -0.2400541
0.3345664 0.25853476 -0.15521522
0.15527229 0.31334713 -0.23500073
-0.018591687 0.061510637 -0.25195462
-0.033229113 0.048494536 -0.25370738
0.13153848 0.31887946 -0.24509338
0.13816884 0.28817287 -0.25693887
0.343605 0.13134076 -0.12261248
0.13822603 0.22462663 -0.21701801
0.39576754 0.22250026 -0.1458678
0.010464825 0.054100163 -0.23942527
0.38962874 0.2387738 -0.15251794
0.171786 0.21900135 -0.22594798
0.24444345 0.23039943 -0.20276454
0.18868805 -0.07976396 -0.13850942
0.16306084 0.36521497 -0.26890385
0.08240065 -0.04116424 -0.16486719
0.25176078 0.33427492 -0.22056608
0.12479871 0.33457267 -0.25180334
0.19507366 -0.069950946 -0.13887078
0.40258023 0.21936768 -0.14255053
0.14120737 0.3135884 -0.24015477
0.2056101 0.25299898 -0.20036292
0.00785955 0.13079664 -0.23864226
0.22536387 -0.0010040551 -0.14667903
0.2509061 0.17212853 -0.18456517
0.26285124 0.26116782 -0.18187758
0.22534752 0.1162976 -0.17861468
0.2891906 0.10646252 -0.15283982
0.09431898 0.25782266 -0.26454163
0.016816247 -0.015360331 -0.19561818
0.3145122 0.27851853 -0.16791
0.10918478 0.2809145 -0.24284661
0.27687454 0.036846116 -0.13834623
0.059587836 0.20889735 -0.2411869
0.19601777 0.19992264 -0.18938541
0.21294975 4.6998262e-05 -0.1514565
0.12987694 -0.070808776 -0.16222431
0.15579411 -0.09614013 -0.14595279
0.23829633 0.028734174 -0.12749311
0.26150128 0.30140683 -0.19331864
-0.0132680535 -0.0051543526 -0.22429913
0.17107478 0.097773835 -0.17060485
0.17717883 0.22834046 -0.20393664
0.32441497 0.24436896 -0.1776342
0.103337 0.22380851 -0.25202024
0.1528905 0.3758318 -0.27547297
0.19276074 -0.050852064 -0.122303665
0.21313009 0.06130699 -0.16806646
0.09746828 0.2806298 -0.2470078
0.32648593 0.14838119 -0.15075707
0.23061225 0.1123854 -0.15304247
0.1506303 -0.027603371 -0.16647613
0.25207686 0.046489775 -0.14994298
0.31251895 0.07031457 -0.1290636
0.2393641 0.056518503 -0.15727203
0.08976206 0.08569011 -0.19673362
0.3576695 0.15088084 -0.14015627
0.15113422 -0.0970363 -0.14709744
0.25712365 0.06511111 -0.15318593
0.15868667 0.14779204 -0.21130385
0.2522558 0.09366993 -0.14011766
0.21383506 0.23653203 -0.19290483
-0.02070377 0.10022266 -0.24065402
0.27967188 0.28979686 -0.1835846
0.15707666 0.26310152 -0.24327351
0.15272401 0.30383146 -0.25593472
0.19065547 0.18963426 -0.18852533
0.24645056 -0.040914338 -0.12818672
0.35192484 0.27843797 -0.16054432
0.16756299 0.14820448 -0.1856028
0.005602762 0.13372035 -0.26285678
0.13779888 0.09714031 -0.18247133
0.2253376 0.23612489 -0.18863246
0.273587 0.09117316 -0.13172133
0.03237237 0.13830486 -0.25441977
0.16525215 0.36315474 -0.26754996
0.069887325 -0.009491531 -0.1780154
0.1344752 0.36640927 -0.2638787
0.12474773 0.26683176 -0.25598475
0.17234346 0.34635565 -0.23780921
0.05155472 0.05535079 -0.22490025
0.31651247 0.29258412 -0.19361778
0.06405893 0.02853715 -0.19047567
0.2028916 0.30973443 -0.21678941
0.29881746 0.11039161 -0.1278245
0.27634332 0.26828596 -0.17893341
0.30949423 0.20566316 -0.14989455
0.12704459 0.268814 -0.25569388
0.2467154 0.057906576 -0.15499012
0.35617363 0.2218746 -0.1374195
0.315427 0.25461435 -0.18367514
0.1331257 -0.08759606 -0.14982149
-0.044111833 0.028044254 -0.22947589
0.16812697 -0.06976181 -0.1260684
0.1696342 0.18372084 -0.21712321
0.2861129 0.03763267 -0.13521793
0.3547997 0.22038382 -0.16011305
0.3566725 0.25210497 -0.16807003
0.04577806 0.22143319 -0.2503881
0.087244995 0.13739888 -0.2343213
0.27883697 0.04347204 -0.13944009
0.20573239 0.07490051 -0.15184005
0.034866273 0.19103222 -0.24526785
0.31741524 0.14906764 -0.13162336
0.045968942 0.14357975 -0.2509369
0.13448718 0.004713122 -0.1585106
-0.057341218 0.035835657 -0.23638289
0.16649437 0.12070428 -0.20110619
0.03918975 0.067253366 -0.21001098
0.20303991 -0.07365288 -0.13498068
0.09667922 0.008665763 -0.17326497
0.10587178 -0.0015464313 -0.18976165
0.0034248084 0.05174148 -0.21872804
0.25973713 0.07146256 -0.15396905
0.29351237 0.094825976 -0.14810896
0.09373961 -0.0071691107 -0.17001821
0.21232997 0.052559767 -0.16597496
0.17531863 0.19475386 -0.21807
0.16398042 0.2852255 -0.24679781
0.21159159 -0.08197727 -0.12962104
0.17242965 0.3237421 -0.2542252
-0.04562307 0.05202167 -0.2583896
0.2213814 0.32256663 -0.23619546
0.16930518 0.29276526 -0.22432183
0.042585634 0.1723404 -0.2599897
0.1512293 0.055964366 -0.16640407
0.21877116 0.08403485 -0.1496097
0.20513213 0.090531476 -0.17891452
0.17710331 0.18140173 -0.2137901
0.041565984 0.16341844 -0.25793022
0.36728108 0.17296962 -0.123007104
-0.00726828 -0.0031778514 -0.20764746
0.104641445 0.25047135 -0.2588061
0.07566221 0.086129904 -0.20195435
0.07078431 0.15369238 -0.24471165
0.18023661 0.10351732 -0.16885346
0.19107436 0.13703021 -0.17405485
0.1423504 -0.06458992 -0.15940395
0.33283103 0.21367118 -0.1436311
0.24185069 0.29530525 -0.22136986
0.16344899 0.28244725 -0.22363172
0.023117099 0.0004273206 -0.19763622
0.2492342 0.12772827 -0.17308423
0.03317195 0.112110734 -0.2243983
0.051674716 0.07502818 -0.23021315
0.0039455146 0.062672496 -0.24411748
0.22805688 0.19400477 -0.17618361
0.25902015 0.055013817 -0.14975116
0.35591054 0.2108382 -0.13451026
0.06187359 0.051892485 -0.1976235
0.098555386 0.30676168 -0.25944006
0.22226822 0.033932865 -0.13470656
0.039576482 -0.0017410778 -0.21369334
0.2037264 -0.016489495 -0.12768963
0.2792102 0.2494826 -0.1727781
0.19870262 -0.08214885 -0.11163494
0.3364283 0.13722003 -0.121519804
0.061947465 0.11772682 -0.23811916
0.068599395 0.031482495 -0.21223707
0.14175186 0.11344135 -0.2080804
0.31929553 0.27563944 -0.16539598
0.13159196 0.12385613 -0.19198875
0.10409877 0.31259707 -0.26381275
0.06737004 0.052599344 -0.21842986
0.21302614 0.22961654 -0.2139175
0.20231125 0.1863323 -0.18340932
0.35527238 0.13866451 -0.1372415
0.33822802 0.25206327 -0.1521292
-0.0034496263 0.027262818 -0.2371545
0.15598398 -0.06775402 -0.13100791
0.19941008 0.058282312 -0.17220664
0.099476136 0.023468923 -0.19888526
0.15896863 0.35830984 -0.24590205
0.25294617 0.22914428 -0.1767443
0.037751198 -0.01747097 -0.18746985
0.16827324 -0.051405028 -0.13101235
0.18970656 0.27620843 -0.21243408
0.07532602 0.15896173 -0.24450296
0.28082877 0.17651239 -0.1749329
0.03256651 0.12873456 -0.25174463
0.37889403 0.22709557 -0.15322286
0.30328387 0.30493116 -0.19785361
0.2653069 0.03861248 -0.12040958
0.24114946 -0.0031437539 -0.117783494
0.23771061 0.067913845 -0.16097166
0.285031 0.19525681 -0.17851476
0.053741097 0.06892483 -0.20520201
0.15612733 -0.011079431 -0.1689855
0.08918485 -0.059612446 -0.1573913
0.023856606 0.0016306713 -0.2202982
-0.01610604 0.10164531 -0.23937768
-0.012082286 0.105507255 -0.26157573
0.19224516 0.31821084 -0.22294873
0.170813 0.3592904 -0.24188425
0.19513859 0.35663354 -0.2323605
0.06782694 0.22930925 -0.26636428
0.3192916 0.15581806 -0.13278201
0.23549885 0.10354495 -0.17147098
0.110138774 0.1266906 -0.22312425
0.21242541 -0.08023789 -0.1071904
0.054136787 -0.03734166 -0.17613295
0.27861845 0.19655819 -0.18118896
0.11669324 0.14424375 -0.22553062
0.18126681 0.15761477 -0.20580871
0.35652226 0.19383648 -0.15226376
0.09777327 -0.018832326 -0.18798657
0.29507387 0.103840545 -0.14999793
0.34311706 0.28250375 -0.17689525
0.11649307 0.082696475 -0.20885035
0.1198991 0.22719902 -0.24695149
0.21952665 -0.034364767 -0.11710803
0.14810944 0.3477175 -0.24694777
0.031837758 0.11511566 -0.22569904
0.31627512 0.11318064 -0.122267485
0.2583381 0.27741686 -0.18793283
0.1274575 -0.030041963 -0.15159386
0.2894112 0.13945496 -0.1391385
0.028707456 0.039149743 -0.20615362
0.10734869 0.28028503 -0.26594207
0.12715542 0.33173352 -0.27278033
0.26918536 0.1020616 -0.15887965
0.39562374 0.2267129 -0.124464095
0.24145098 0.27951452 -0.217216
-0.003693223 0.016701728 -0.21176529
0.24673855 -0.011560168 -0.1134703
0.28448707 0.23535977 -0.16702498
0.22409248 0.035784043 -0.157153
0.28814226 0.2691442 -0.1748984
0.19823088 0.05290265 -0.17116912
0.3034273 0.30615288 -0.18069224
0.25476688 0.0597271 -0.12997049
0.078565866 -0.04990368 -0.16387545
0.07038884 0.19950084 -0.25732365
0.29162163 0.2124673 -0.18081482
0.26379555 0.12756346 -0.16777134
0.23938075 0.32610774 -0.23064776
0.1753104 0.3457859 -0.23658139
0.14585638 0.3865058 -0.2583208
0.2781673 0.12561697 -0.13943985
0.013444833 0.1355663 -0.26052263
0.23622096 0.16372952 -0.1649892
0.03535552 0.0750971 -0.23613566
0.23924145 0.075342745 -0.16244012
0.13545746 -0.014654666 -0.17549054
0.35035452 0.13824826 -0.12815268
0.12068456 -0.021207606 -0.15644851
0.070743576 -0.03160473 -0.19428913
0.2585754 0.25982797 -0.18305986
0.0730482 -0.021478884 -0.17360884
0.20420349 -0.11431171 -0.1234923
0.19553068 0.09084763 -0.15987161
0.17308767 0.2408601 -0.23142715
0.322654 0.13102967 -0.14742048
0.2320312 0.0018908828 -0.14505506
0.18677664 0.028269328 -0.16860786
0.17090797 0.13491428 -0.20337732
0.028108187 0.17011842 -0.24201971
0.36533692 0.2635193 -0.16804206
0.07980972 0.24887812 -0.24475327
0.2096462 -0.05640938 -0.11468208
0.11290756 0.19010931 -0.21678251
0.2589441 0.14519778 -0.15172398
0.27352983 0.060635827 -0.123429716
0.37538832 0.23417197 -0.15641752
0.2623808 0.039502043 -0.12171036
0.320367 0.10999475 -0.11991996
0.13403296 0.32341135 -0.2680266
0.106603995 0.1470612 -0.2073453
0.15431249 0.28302288 -0.24969652
0.34366846 0.19534647 -0.13472244
0.299658 0.13104826 -0.15574512
0.055456065 0.19788231 -0.26228544
0.29244477 0.30986193 -0.2070278
0.038840964 -0.032316595 -0.18730435
0.25465673 -0.03362149 -0.12730773
0.044114858 0.19041523 -0.24175367
0.07242555 -0.026689943 -0.17241608
0.3816259 0.26152742 -0.14738773
0.21541753 -0.08223764 -0.10755304
0.17030628 0.18061453 -0.19343208
0.112693965 0.24516739 -0.23184638
0.06199696 0.2413093 -0.26011437
0.18113028 0.2441599 -0.22941558
0.094992295 0.032104783 -0.18025538
0.22586356 0.34165946 -0.23977108
0.13004123 0.06770688 -0.177266
0.3064863 0.060512908 -0.13407518
0.071631715 0.04291548 -0.19164953
0.1658622 0.28574938 -0.22365758
0.28779244 0.062270053 -0.14131664
0.17819113 0.014821596 -0.14545059
0.13564195 0.26975226 -0.25283855
0.05174034 0.199688 -0.24151914
0.21046826 0.23053071 -0.1924891
-0.03460951 0.07190545 -0.2580052
0.12565038 0.22882292 -0.24531275
0.050613075 0.17811689 -0.23605546
0.12550639 -0.07215499 -0.16343912
0.0493216 0.15980634 -0.23153815
0.19494912 0.19261843 -0.18778399
0.16843352 -0.09133734 -0.12008494
0.063277684 0.13615122 -0.22005028
0.12619725 0.25162184 -0.22871837
0.3006159 0.10425475 -0.12550321
0.17756486 0.25760275 -0.23436436
0.22045991 0.02164055 -0.13201466
0.2050502 0.0058861375 -0.15590402
0.09477224 -0.008484028 -0.19188885
0.3348102 0.23708789 -0.17189187
0.1219545 0.16002193 -0.2279223
0.17185822 0.3762282 -0.2687189
0.1705329 -0.011579677 -0.16363746
0.06455141 0.02878756 -0.21296768
0.15784462 -0.08731446 -0.12501031
-0.052613534 0.019529272 -0.23078075
0.09155527 0.012587994 -0.17618631
0.0936321 0.09733516 -0.2211055
0.36156958 0.15411846 -0.1325514
0.07246461 0.14064808 -0.24055329
0.18270172 0.37066203 -0.24067836
0.045772873 0.20628768 -0.24547416
0.36787626 0.21915607 -0.15504807
0.033726476 0.06000014 -0.21001364
0.23284847 0.18788739 -0.17278484
0.36402664 0.16057612 -0.14049545
0.135434 0.32337654 -0.24490812
0.16810721 0.36065716 -0.26583773
0.18870866 -0.064314544 -0.14270744
0.14154923 0.3610157 -0.2755433
0.12258551 0.29353502 -0.24143367
0.0901615 -0.022858169 -0.16704215
0.19539654 -0.06670709 -0.11703418
0.17382535 0.030619662 -0.17393273
0.23353401 0.20468831 -0.17711045
0.08871055 0.07858531 -0.19517988
0.12329016 -0.006649714 -0.15946883
0.07615779 -0.0040217526 -0.19983812
0.18328367 -0.06489317 -0.14451292
0.20251438 0.25148073 -0.20106964
0.037727088 -0.03296215 -0.20671509
0.14782594 0.12788768 -0.20981523
0.2010029 -0.021827538 -0.14982437
0.2241843 0.2117742 -0.20502417
0.24893886 0.110617265 -0.16853338
0.25432795 0.19782132 -0.19032046
0.13547412 0.012345124 -0.16023098
0.1561701 0.2276129 -0.23394182
0.20373356 0.265896 -0.204552
0.27737287 0.28035164 -0.20444773
0.18584749 -0.045308553 -0.14891621
0.025993224 0.11285803 -0.22719893
0.16378988 -0.00584656 -0.1676377
0.33401674 0.18664752 -0.13584678
0.26175207 0.27677643 -0.2091262
0.13123909 0.11961349 -0.19096173
0.29266098 0.23054951 -0.16275844
0.10416177 -0.05964173 -0.15196486
0.2958216 0.19317858 -0.15144253
0.3433333 0.22111918 -0.14185917
0.16870923 -0.002792593 -0.16668919
0.25719285 0.020396195 -0.118386924
0.30797786 0.19422321 -0.16993153
0.14877799 -0.07619426 -0.13131785
0.37723503 0.22262266 -0.15260597
0.17435157 0.17929071 -0.21421076
0.22270137 -0.082180314 -0.121626414
0.03147206 0.1001683 -0.24436492
0.19055367 0.21661273 -0.2185077
0.17198545 0.294521 -0.24643216
0.1976487 0.26308432 -0.2285904
0.10628591 0.25430995 -0.2592557
0.12282099 0.15239593 -0.22553268
0.07155934 0.07319264 -0.22251953
0.09607114 0.0806989 -0.2156947
0.3245448 0.20625876 -0.14461143
0.0859607 -0.036385372 -0.16488014
0.19779402 0.018238775 -0.13928917
0.03434807 0.06570387 -0.21134123
0.18808201 -0.0092789605 -0.13531265
0.15611619 0.14465316 -0.21137977
0.06038093 0.14608502 -0.22380258
0.013535529 0.0719523 -0.22057126
0.28937948 0.041602515 -0.1351169
-0.062472403 0.026859764 -0.25322413
0.15198496 0.29954287 -0.25503504
0.23564184 -0.056958314 -0.11914002
0.045294218 0.16421342 -0.23419477
0.18171938 0.15911308 -0.18345068
0.113218404 0.26997814 -0.23841041
0.08845707 0.1997515 -0.2508553
0.27165806 0.18654567 -0.18098132
0.20636171 0.18534844 -0.18167643
0.2100515 0.29743674 -0.21085168
0.07356225 0.0873841 -0.22565784
0.051864553 -0.00047615543 -0.18698949
0.010403544 0.11714181 -0.2566078
0.2824319 0.2736454 -0.17818955
0.04932103 0.084594645 -0.23366849
0.25951093 -0.0155360885 -0.120135285
0.31233665 0.18283656 -0.14265244
0.07930897 0.09562117 -0.20321849
0.13533846 0.3060905 -0.26283985
0.18986067 -0.117907 -0.115225635
0.20913777 -0.09632937 -0.11078628
0.15163982 0.31233028 -0.23603824
0.3657409 0.18570979 -0.14671642
0.28107575 0.2587413 -0.19722581
0.17801642 0.009592774 0.11208235
0.14504585 0.021020958 0.20518373
0.13357997 0.023547504 0.230201
0.11045435 0.023210794 0.23336732
0.19388226 -0.008836016 0.07773165
0.20520367 -0.030214366 0.0052292272
0.25003293 -0.031014327 -0.10470252
0.15947393 0.02004811 0.17201412
0.2526969 -0.038936656 -0.06935239
0.16409355 0.017443296 0.14287883
0.26843235 -0.06586637 -0.15505403
0.19621941 -0.023075357 0.057613555
0.22248629 -0.03995932 -0.027659833
0.14702472 0.0025902987 0.15571885
0.20571911 -0.012629895 -0.012558483
0.1584129 0.01663124 0.11127187
0.18386601 -0.01818296 0.07267579
0.25600934 -0.046271976 -0.083808124
0.16622311 -0.007738282 0.06944642
0.23106457 -0.040934198 -0.02955532
0.2376201 -0.04849264 -0.08517413
0.19284338 0.0012324725 0.09017064
0.23348409 -0.021683129 -0.032469988
0.14467786 0.028390989 0.19211584
0.15830986 0.016909331 0.1749422
0.1320085 0.025681486 0.17242002
0.17633 -0.013933716 0.105978295
0.086743854 0.04003566 0.27597538
0.18321721 -0.017817132 0.034995046
0.25018504 -0.032116406 -0.057014003
0.10644305 0.025472596 0.22922823
0.21426003 -0.010843478 -0.026362494
0.17016141 -0.0044694794 0.12854625
0.2482546 -0.03676502 -0.12152059
0.094287515 0.048115678 0.27017704
0.21876743 -0.013385008 0.0077569187
0.14007674 0.0073171817 0.13666537
0.25130323 -0.031730592 -0.107740924
0.105649576 0.050397396 0.25140697
0.20397107 -0.02951937 -0.022863127
0.17407703 -0.012663379 0.060370058
0.20288901 -0.018587092 -0.013584934
0.22083126 -0.03902611 -0.03661339
0.14632235 0.002986325 0.14081731
0.17742862 0.009924212 0.08807414
0.14974019 0.005687955 0.11612811
0.26376152 -0.038755294 -0.12899627
0.1864582 0.0048328117 0.08128927
0.24059299 -0.05016892 -0.078031346
0.14984383 0.025478113 0.19041163
0.2155207 -0.028676199 0.014025539
0.23930602 -0.024965867 -0.036330946
0.25390932 -0.057677455 -0.14456016
0.10798318 0.046481587 0.24180895
0.12440887 0.029456506 0.19130003
0.1322779 0.0353828 0.20490925
0.21912302 -0.037950985 -0.06628122
0.2663061 -0.045884714 -0.16653377
0.12178217 0.016823513 0.19125974
0.11338217 0.02155992 0.2553858
0.09585087 0.03506012 0.25285614
0.14157291 0.030141748 0.20195962
0.1228959 0.04067292 0.21942782
0.23784915 -0.024144381 -0.04148514
0.2835018 -0.052534908 -0.14401776
0.127747 0.013460182 0.17572786
0.14493477 0.0050565135 0.18792927
0.11396635 0.045707926 0.23932436
0.13167474 0.03299104 0.18106668
0.17061846 -0.0077002654 0.060957726
0.19679095 -0.01397343 0.06646468
0.13822792 0.011238173 0.14454423
0.13810349 0.024860846 0.15969312
0.28727493 -0.053173937 -0.15203972
0.182972 0.00663257 0.11583315
0.26140076 -0.058482714 -0.10763383
0.09528315 0.031765193 0.27195174
0.23913968 -0.03337191 -0.036951616
0.24376157 -0.027478168 -0.06742209
0.23493712 -0.035331942 -0.0941064
0.23269606 -0.028201908 -0.08195456
0.19323236 -0.023464248 0.031922065
0.17852329 -0.015170421 0.047818035
0.12809637 0.021555917 0.17549786
0.18905503 0.0033685649 0.09048857
0.26546493 -0.051629953 -0.10802233
0.12859388 0.012982676 0.2051243
0.15696812 0.0072002877 0.10375545
0.14495078 0.02823581 0.2132635
0.23317297 -0.045985095 -0.04615718
0.23225275 -0.020988816 -0.010231912
0.25047565 -0.04087275 -0.13032621
0.21578765 -0.036182243 -0.023931876
0.1506298 0.017669778 0.19067945
0.25598454 -0.05346813 -0.09163484
0.13406366 0.034375887 0.22463682
0.14800602 0.0020369785 0.11626601
0.13506895 0.009331657 0.18671513
0.16379477 0.010727115 0.09436606
0.21776435 -0.012819417 -0.006840773
0.21343186 -0.013257619 -0.028213948
0.25519446 -0.05840208 -0.14075224
0.19075741 -0.0061658034 0.08671823
0.1242292 0.039921135 0.22487213
0.19335951 -0.018373907 0.005142741
0.14432096 0.0041148327 0.18374825
0.18059257 0.005387757 0.11908886
0.13195784 0.013523143 0.2223794
0.20143622 -0.0036126662 0.06058667
0.19810195 -0.011497723 0.0034634992
0.19641827 -0.00078325346 0.055464607
0.10793316 0.024632383 0.24031824
0.23914833 -0.036341507 -0.04021807
0.20813012 -0.03186448 -0.03193161
0.08878436 0.04017482 0.27216756
0.14876841 0.0016071051 0.15839899
0.26404065 -0.038912673 -0.12644126
0.15603754 0.018137839 0.18069658
0.15735799 -0.0019310582 0.09300631
0.17783049 -0.0064401226 0.111505985
0.28446043 -0.05042653 -0.15169078
0.27251214 -0.05925594 -0.16524272
0.17115568 -0.011016139 0.06244963
0.1554145 0.0029650833 0.10213602
0.18821098 -0.00864732 0.025778666
0.10737331 0.029520895 0.22443232
0.16665338 -0.005346801 0.0712284
0.26070544 -0.037032098 -0.101709135
0.24071598 -0.05023828 -0.10557076
0.1663771 0.01615569 0.15519878
0.21033537 -0.008630528 0.020813167
0.15409587 0.017054005 0.12011278
0.14185978 0.029979989 0.21845761
0.18916659 -0.0018248567 0.031389914
0.18036105 -0.010477275 0.102176905
0.28717375 -0.051956456 -0.15793163
0.25451067 -0.044891767 -0.14255524
0.09059037 0.036968797 0.26515415
0.18815753 -0.01948674 0.077186726
0.17167728 -0.011310253 0.081009924
0.12968841 0.020168716 0.17089006
0.14643356 0.0054014083 0.18539792
0.20498891 -0.005615892 0.055632014
0.20571372 -0.027577776 -0.028905585
0.16563375 0.016574847 0.15817152
0.27883452 -0.06582481 -0.1613228
0.18522803 -0.009799504 0.093473
0.094364695 0.050244402 0.2723567
0.20457602 -0.029860457 -0.026049688
0.18438606 -0.0087316865 0.03310953
0.24121648 -0.0391775 -0.047335267
0.23550527 -0.022822782 -0.0546088
0.26752567 -0.05043186 -0.110710636
0.28867918 -0.052805323 -0.15615422
0.21810995 -0.013014278 0.018813256
0.1985049 -0.026437212 0.004656762
0.18054043 -0.016307803 0.054392204
0.18140283 0.0076833107 0.072985634
0.15305835 -0.0008118227 0.16080046
0.21440026 -0.010922551 -0.007260479
0.18613693 -0.019463437 0.028903544
0.2163318 -0.028440783 -0.05045703
0.2206548 -0.033440378 -0.001151979
0.21925706 -0.029504217 0.0058680847
0.09244655 0.040594712 0.26551962
0.15278932 -0.000660127 0.15056504
0.20415877 -0.0051478054 0.014247172
0.10187659 0.028047439 0.25120646
0.11407997 0.036655802 0.28239018
0.23341523 -0.03248105 -0.08803304
0.20092084 -0.027799463 0.04320876
0.20373873 -0.0049109655 0.04282686
0.11300772 0.039701514 0.2878041
0.24293928 -0.027014501 -0.043327935
0.21088259 -0.03341648 -0.008458875
0.2082558 -0.0074579427 0.04505792
0.13751705 0.007951273 0.15606114
0.24467006 -0.028844664 -0.042730533
0.24912098 -0.04842863 -0.13596559
0.19208644 -0.011669386 0.014950287
0.26978314 -0.051185012 -0.11591601
0.2491773 -0.030531872 -0.0901112
0.20037225 -0.0030127484 0.023041457
0.15283881 0.023789372 0.15602711
0.1724928 0.0003801749 0.066162586
0.15830514 -0.003770262 0.09620798
0.2725119 -0.043689266 -0.16611648
0.20147242 -0.028110482 0.0040313676
0.25807816 -0.0355507 -0.12741919
0.22010781 -0.027261067 0.0066716745
0.19346784 -0.014964678 0.008663256
0.20967782 -0.01700081 0.038141593
0.26360878 -0.06314658 -0.13763022
0.23382157 -0.046350807 -0.092631176
0.17999244 -0.0040376717 0.10993922
0.13783708 0.007770814 0.18079796
0.23003146 -0.040214032 -0.02676221
0.17834546 -0.015070148 0.05733002
0.1913839 -0.003154221 0.025631957
0.20487338 -0.030028144 -0.01946497
0.16938348 -0.010016869 0.06423079
0.1335438 0.03466901 0.1847845
0.22956014 -0.043947965 -0.07797931
0.15948425 0.0011193044 0.15538383
0.16535899 0.01672977 0.100225225
0.13632385 0.019591385 0.15738052
0.18265493 0.0069773095 0.095978834
0.0990206 0.029657803 0.2692449
0.17430735 -0.0003573828 0.061833892
0.14525613 0.005633693 0.124771185
0.15684414 -0.002145635 0.15693477
0.16479346 0.017048635 0.10937962
0.2007146 -0.013197298 0.059699178
0.22895108 -0.019863678 -0.06556196
0.12024859 0.01768823 0.23998496
0.102482975 0.027705517 0.23377708
0.25284386 -0.057076685 -0.09781761
0.09294536 0.035738047 0.28277802
0.16981547 0.01421695 0.14333363
0.21699294 -0.03686186 -0.021163717
0.24647655 -0.029009026 -0.07858642
0.15196535 0.008827278 0.17841107
0.18813013 -0.020587308 0.035629354
0.14850506 0.012298368 0.18892506
0.25194126 -0.043338124 -0.13586846
0.14172113 0.03005816 0.19799542
0.26376832 -0.04248609 -0.0947234
0.28083825 -0.057133555 -0.14388074
0.14062375 0.03067693 0.20680392
0.2655247 -0.06422687 -0.16187516
0.20757577 -0.031551898 -0.028112195
0.11802244 0.01894347 0.22709946
0.25778246 -0.059861343 -0.13918355
0.15638958 -0.0026901495 0.15335548
0.21329482 -0.01029923 0.038425364
0.12372643 0.015727224 0.18918215
0.28021204 -0.06998115 -0.15672474
0.15895648 -0.0032472704 0.15162972
0.1890005 -0.017121483 0.07813907
0.2083035 -0.028652733 0.028058011
0.24987325 -0.055401683 -0.14322816
0.10881742 0.024133787 0.25169486
0.26047868 -0.036904246 -0.091734074
0.10938817 0.045058344 0.23752472
0.13325752 0.010353046 0.19659467
0.20327067 -0.004647037 0.029962853
0.14020316 0.025954658 0.15681517
0.19716287 -0.0012031076 0.033910487
0.24357358 -0.051849555 -0.11183309
0.2520523 -0.056630347 -0.10437386
0.13289322 0.010558458 0.20267016
0.2257378 -0.017315306 -0.017192736
0.23015463 -0.026683351 -0.012194537
0.1502889 0.0007497659 0.11301175
0.10202929 0.027961336 0.2744132
0.12494429 0.015040521 0.2253978
0.25534803 -0.042028036 -0.07788046
0.18715312 -0.008486963 0.09117319
0.2307073 -0.020117408 -0.05641833
0.1220173 0.041168325 0.26145044
0.23685211 -0.023582203 -0.022646092
0.12546004 0.03922711 0.20314847
0.23333196 -0.025788084 -0.080547266
0.19905731 -0.026748698 -0.00238429
0.12120534 0.03201543 0.26348358
0.22278556 -0.015650675 -0.043344177
0.25130048 -0.05620644 -0.112987295
0.18575053 0.005231831 0.046696886
0.28805 -0.055408843 -0.15598965
0.128836 0.014180243 0.22915718
0.264853 -0.06384812 -0.15270364
0.15872796 -0.0040086675 0.0923816
0.123299524 0.015967939 0.21892336
0.20492469 -0.03005707 -0.016332723
0.25835368 -0.035706047 -0.11120283
0.11762818 0.043643173 0.26736763
0.23605381 -0.04760948 -0.07230508
0.17247574 0.0062941243 0.07266738
0.1031845 0.027309958 0.2374452
0.19630955 -0.010920605 0.070739694
0.2171334 -0.036941044 -0.007182494
0.22840384 -0.018818578 -0.025818154
0.21017337 -0.008539181 0.00059815496
0.09957155 0.029347148 0.25283715
0.18476076 -0.01868748 0.024496596
0.26362488 -0.063155636 -0.1322554
0.13806862 0.032117665 0.16777855
0.1909232 0.0023151813 0.041131835
0.14868693 0.0016530473 0.16986206
0.1998851 -0.0027380635 0.057117075
0.16428931 -0.0048693325 0.13950497
0.135853 0.03336695 0.22164598
0.15012142 0.00084420294 0.13892162
0.14925064 0.0039950125 0.17839165
0.10894657 0.048538372 0.26285625
0.16266154 -0.0062266532 0.10490505
0.1143522 0.021012966 0.20542687
0.11075245 0.025870405 0.21387947
0.12555805 0.014694452 0.1858041
0.16847967 0.010239727 0.08474049
0.15744032 0.021194767 0.13721451
0.22969046 -0.044021454 -0.07504772
0.26437765 -0.047864363 -0.10179153
0.2783285 -0.068201885 -0.15112215
0.119847804 0.024831677 0.19509098
0.16651878 0.0050306637 0.1460118
0.12606752 0.038884584 0.23861966
0.12666295 0.015009306 0.2342818
0.10815756 0.030197304 0.2868165
0.19870692 -0.025775362 0.049831316
0.12047953 0.042035416 0.23417976
0.27048248 -0.046025556 -0.11162719
0.12369545 0.025422312 0.25143602
0.173437 0.012174906 0.10483281
0.13303114 0.019735685 0.16392878
0.15827581 0.010972714 0.10534574
0.22113648 -0.018597009 0.014156409
0.16076806 0.013964669 0.103783056
0.2701546 -0.066837475 -0.15671968
0.12519367 0.0148999095 0.18243806
0.14561453 0.0033854414 0.15379217
0.17141944 0.013312532 0.087991506
0.17713541 -0.014387856 0.06695624
0.19618697 -0.022147506 -0.0044741333
0.27351862 -0.050668795 -0.122600764
0.26751688 -0.040872782 -0.10367037
0.22066358 -0.018671285 -0.04817307
0.27377295 -0.06887773 -0.14644006
0.11911361 0.03878274 0.2117826
0.18229245 0.007181702 0.07798573
0.23081626 -0.044508293 -0.0961506
0.2328271 -0.02131267 -0.049965695
0.2373783 -0.03647493 -0.10009491
0.21360658 -0.010475018 0.020716414
0.20009176 -0.008520937 0.002859287
0.15023758 0.00077870674 0.16170046
0.1780716 -0.014915743 0.08811371
0.12196326 0.026182884 0.192464
0.13941269 0.0313598 0.2107253
0.23977655 -0.04970858 -0.09003447
0.20082833 -0.003269909 0.019756708
0.23088129 -0.020215506 -0.05992704
0.20627478 -0.03081833 -0.022904433
0.09940713 0.046163585 0.25810495
0.19401279 -0.011002749 0.07510724
0.22291467 -0.04020087 -0.07334878
0.1483667 0.006767934 0.18314156
0.1595234 -0.0044571804 0.09998022
0.2279574 -0.02049016 -0.0011529997
0.27112585 -0.0473281 -0.11430119
0.21914601 -0.034143068 0.0010072589
0.25239113 -0.056821406 -0.12323578
0.18673442 0.0013109669 0.03954174
0.18948631 0.0031253863 0.061119348
0.26894295 -0.066154286 -0.13179126
0.21373226 -0.025783714 0.020661712
0.12826045 0.034408703 0.25241035
0.17167746 0.011511336 0.14309195
0.14864367 0.0016774349 0.12111969
0.12887213 0.037303176 0.22815377
0.16042222 0.010322718 0.16363484
0.25777522 -0.059857264 -0.14525147
0.23147549 -0.020550555 -0.026590757
0.14234115 0.022935195 0.14936161
0.23535064 -0.047212984 -0.056904987
0.14439164 0.028552374 0.1612088
0.13449746 0.02259662 0.2273798
0.20504925 -0.030127307 -0.028634034
0.13085784 0.011706125 0.21373692
0.21124515 -0.0318655 0.018833213
0.12222437 0.016574174 0.19687745
0.23135202 -0.028181221 -0.07932351
0.27112097 -0.042904977 -0.16292956
0.26697034 -0.04056461 -0.10827814
0.20246021 -0.012829487 0.05671387
0.10165279 0.028173622 0.28544176
0.16952941 0.014378239 0.10196506
0.14009741 0.028316468 0.22277096
0.14552385 0.017436795 0.13716786
0.09847385 0.046717472 0.26052234
0.18485774 -0.004905316 0.099547386
0.11994309 0.017860487 0.20925039
0.18771526 0.0041240007 0.06248286
0.15986393 -0.0046067405 0.08521487
0.16562127 0.001696555 0.1441051
0.21303907 -0.010155031 -0.013477631
0.21214631 -0.034129035 -0.010766134
0.23715696 -0.023754096 -0.062425368
0.18552786 -0.0116930995 0.09081894
0.21726163 -0.019147871 0.021073725
0.15993956 0.01978556 0.13821116
0.12336946 0.032928817 0.26028308
0.20319588 -0.025761198 -0.02203121
0.13055041 0.026674734 0.1763367
0.18685979 -0.0028231172 0.034774452
0.23858023 -0.024556616 -0.06459206
0.17748915 -0.014587317 0.0529809
0.2611553 -0.06176315 -0.1438163
0.1786361 -0.0061359825 0.047109284
0.24562787 -0.043433838 -0.060554445
0.22130668 -0.039294183 -0.055095382
0.21281248 -0.03450466 0.0069044083
0.25582716 -0.04100335 -0.14085504
0.19119239 -0.022313999 0.057884153
0.1651798 -0.0054949233 0.13709219
0.14860368 0.0016999915 0.14504641
0.1924682 0.0014440222 0.038701728
0.10662288 0.02987006 0.28941903
0.18336447 -0.014114674 0.029201545
0.14955968 0.020611377 0.1959753
0.27747557 -0.046488073 -0.14538223
0.23346516 -0.046149846 -0.049130872
0.115531914 0.044825163 0.25278702
0.26394492 -0.06333609 -0.118158914
0.14653923 0.027341448 0.15603866
0.22279803 -0.02467729 -0.058887966
0.26065633 -0.042654675 -0.08886832
0.2468355 -0.052083932 -0.13553008
0.10800655 0.02459101 0.27432707
0.19248989 -0.02304561 0.011850774
0.2641383 -0.038967744 -0.10902557
0.116321206 0.023652844 0.26381123
0.23231196 -0.021022204 -0.022690363
0.2376887 -0.048531335 -0.08839015
0.21744533 -0.012639537 0.021362878
0.27411973 -0.044595852 -0.139809
0.2072609 -0.01071141 0.049714763
0.16747606 -0.0033232505 0.1350122
0.20913142 -0.007951665 -0.004674524
0.2304954 -0.04447532 -0.05184272
0.18147229 -0.0017375757 0.046418164
0.2650851 -0.063979 -0.13506943
0.26017895 -0.049014788 -0.0949018
0.2093896 -0.013892883 -0.02106405
0.1746728 0.011478108 0.13044438
0.26128858 -0.04619716 -0.09397197
0.25677264 -0.044851754 -0.14690131
0.18627116 -0.019539129 0.07331505
0.143286 0.013119761 0.19995281
0.13175467 0.02336935 0.17038245
0.1884088 -0.005452591 0.028890748
0.16454522 0.017188622 0.14974755
0.1498037 0.025500748 0.13964291
0.09956316 0.029351886 0.2758743
0.19196743 -0.0102527505 0.07989753
0.22535592 -0.020480242 0.0039066896
0.27012682 -0.042344414 -0.15609281
0.19953279 -0.00288676 0.07327567
0.16281542 0.018163977 0.1547399
0.18394738 -0.0020036427 0.10448949
0.16803806 -0.00048116827 0.07386559
0.14812124 0.0019720243 0.13690035
0.26105264 -0.06170527 -0.12368115
0.16465127 0.009422092 0.15444174
0.14335407 0.0046600215 0.17121866
0.16215259 0.018537723 0.13577582
0.16720085 -0.0087861745 0.12104601
0.16231512 -0.0060313214 0.12795837
0.22913054 -0.032163993 -0.079370536
0.12288069 0.03708126 0.26577574
0.097147554 0.04385286 0.25996158
0.23089705 -0.044701792 -0.038361326
0.19337338 -0.023543766 0.062531374
0.26616848 -0.06458989 -0.15474653
0.26654047 -0.040322226 -0.12755206
0.22661977 -0.017812619 -0.051146597
0.27917746 -0.05975104 -0.1435219
0.15183324 -0.000121029094 0.15410927
0.16457786 -0.0016517641 0.07929997
0.21318185 -0.03460808 0.012073338
0.13101605 0.02000032 0.16812916
0.18256992 -0.017452154 0.030159116
0.17574814 -0.0020156454 0.05722303
0.20230451 -0.02857966 -0.016955651
0.21263151 -0.01954431 0.029625807
0.20129766 -0.02801193 0.018134534
0.212387 -0.03426475 -0.023417875
0.104237325 0.047686093 0.2503968
0.19759001 -0.0193474 0.05903311
0.1472669 0.017970096 0.13436863
0.121447735 0.041489482 0.2138353
0.26239616 -0.040154442 -0.08950885
0.25363103 -0.03304314 -0.0757997
0.241201 -0.02603436 -0.058053866
0.22998932 -0.025726268 -0.073992394
0.27640402 -0.068489425 -0.14770184
0.15104501 0.024800815 0.185559
0.2156639 -0.032123044 -0.053190336
0.22494446 -0.027762622 -0.066429965
0.15183687 0.024354322 0.14087786
0.14126347 0.030316224 0.19342305
0.1795356 0.0087361755 0.09763704
0.27987868 -0.060848206 -0.14608343
0.16170135 0.018792154 0.15699284
0.28235933 -0.06423201 -0.16029586
0.2627939 -0.062687084 -0.14100976
0.16012146 -0.004794404 0.14524549
0.15497321 -0.0018915255 0.14842606
0.18868384 -0.018917039 0.013622746
0.25452995 -0.05798558 -0.09375523
0.28606915 -0.051333636 -0.14908695
0.21428323 -0.010856561 -0.02366051
0.22502325 -0.041389808 -0.06807988
0.2579689 -0.035489075 -0.11796895
0.16625972 -0.008255514 0.0722138
0.19676572 -0.0009791823 0.018146127
0.15336537 0.023492465 0.1594558
0.14787005 0.026591044 0.19922853
0.16975543 0.009407807 0.1445202
0.24232018 -0.051142827 -0.09063875
0.1896964 -0.02038854 0.07321331
0.2661147 -0.040082157 -0.1139234
0.23617187 -0.04568263 -0.10782959
0.22052291 -0.02904855 -0.05925601
0.2569172 -0.047260534 -0.08665185
0.2093632 -0.032367427 -0.041229673
0.23634183 -0.023294492 -0.059509866
0.15416116 0.01919456 0.18549453
0.22524235 -0.020992553 -0.05959954
0.28010783 -0.065664746 -0.15179895
0.17617577 0.010630634 0.09865544
0.22936793 -0.04383959 -0.05625356
0.23909283 -0.03677464 -0.10937299
0.24145702 -0.026178721 -0.069522835
0.1780617 -0.0042026937 0.11350573
0.09257826 0.03329037 0.27039465
0.108376354 0.02438249 0.26951283
0.15321563 0.0235769 0.18409428
0.18019915 0.008362021 0.075135276
0.0982984 0.03006503 0.28238922
0.20137969 -0.02459496 -0.017230175
0.17079929 0.0017235847 0.13408542
0.23311156 -0.04595046 -0.099977575
0.21041799 -0.008677104 0.02684563
0.23172633 -0.020691995 -0.04712552
0.15940139 0.02008901 0.16345036
0.17674632 -0.014168468 0.0502367
0.27202293 -0.043413553 -0.12608382
0.25410753 -0.03331181 -0.10467151
0.095297225 0.0464419 0.28133786
0.22890504 -0.032406703 -0.016032495
0.26592794 -0.06443238 -0.16667576
0.24821779 -0.036607265 -0.058110476
0.20579754 -0.017153004 0.045505684
0.18648805 -0.014384228 0.022844478
0.12754194 0.029194439 0.18493277
0.23803037 -0.041093804 -0.04324887
0.11009693 0.036737796 0.22704396
0.19630188 -0.025195023 0.008082997
0.23789974 -0.048650317 -0.06742886
0.19881728 -0.0021359632 0.049034186
0.16692396 0.0124780275 0.09020911
0.16492984 -0.0075056497 0.13443142
0.18692629 -0.007846397 0.029148377
0.24403906 -0.05207923 -0.13009772
0.18959847 -0.008758128 0.022964608
0.24556711 -0.05297363 -0.10583612
0.12414428 0.015491616 0.2350836
0.1681389 0.015162288 0.124181926
0.13374357 0.034556378 0.21298708
0.10102378 0.028528303 0.27217668
0.2399239 -0.02531426 -0.07914811
0.1495594 0.025638497 0.15067817
0.24373597 -0.033723786 -0.10942296
0.18047169 -0.016269049 0.04577083
0.24586692 -0.053142678 -0.08645535
0.2593069 -0.036243517 -0.13638848
0.25271097 -0.032524355 -0.078797996
0.26946712 -0.06360027 -0.12888879
0.2606855 -0.061498255 -0.11717967
0.23050459 -0.020003105 -0.036247537
0.24701947 -0.053792555 -0.11824552
0.08872441 0.03353301 0.2816139
0.12687854 0.038427282 0.25890008
0.14958474 0.02562421 0.17855382
0.17866881 0.009224918 0.09997441
0.16137326 -0.005500242 0.08895971
0.15287766 0.023767466 0.17522424
0.19329157 -0.023497637 0.034850802
0.19709735 -0.0011661658 0.05917091
0.19550633 -0.0047717765 0.015861217
0.26441136 -0.051511265 -0.10584776
0.20869629 -0.0077063134 0.023706991
0.1368757 0.032790296 0.2024566
0.2557036 -0.034211773 -0.094937675
0.25257167 -0.032445814 -0.09058178
0.25294486 -0.037798334 -0.13175395
0.23638114 -0.043442488 -0.105784334
0.13927034 0.028795032 0.16173378
0.14510466 0.028150331 0.19635667
0.13568732 0.03346038 0.17891459
0.13434863 0.009737806 0.16866171
0.17396453 -0.003600929 0.058949806
0.17465404 0.0056049135 0.13085169
0.1090419 0.024007216 0.22664349
0.13899553 0.031595014 0.20123407
0.27844867 -0.047474816 -0.12867358
0.25904566 -0.03609623 -0.11359404
0.2177468 -0.012809519 -0.030368455
0.15816095 -0.0036889613 0.14402035
0.1932615 -0.013536125 0.073792994
0.16410895 -0.0022621863 0.14270803
0.20049964 -0.027561964 0.02701743
0.09060033 0.04589271 0.27490035
0.2682355 -0.041277997 -0.14025098
0.2721013 -0.06531136 -0.13587359
0.18929264 -0.0062957276 0.08941881
0.14922264 0.007785367 0.11942779
0.27138034 -0.0631803 -0.16482009
0.12236794 0.038461305 0.26828104
0.20750202 -0.027689438 0.030667596
0.15197173 0.023231078 0.13099483
0.274435 -0.0480098 -0.1214695
0.26369563 -0.03871814 -0.13844591
0.20947053 -0.0081428755 0.04202343
0.18711172 0.004464311 0.05918952
0.10487042 0.031934336 0.23193085
0.111234695 0.022770785 0.21439695
0.18658519 0.0047612083 0.07143111
0.23764794 -0.024030937 -0.05243735
0.08849123 0.036570035 0.2687917
0.13765477 0.032351024 0.21945813
0.27340314 -0.044191796 -0.16219461
0.24758787 -0.029635657 -0.049558535
0.20633496 -0.03085226 -0.0105570555
0.19712509 -0.0011818092 0.047504492
0.11769714 0.019126885 0.19337231
0.21372014 -0.010539058 0.026056696
0.1462235 0.012207666 0.19325376
0.27801448 -0.06595421 -0.14805304
0.17617042 0.010633648 0.09092287
0.14126046 0.03031791 0.16936547
0.14314985 0.019767275 0.14432545
0.23632804 -0.0477641 -0.052055575
0.18824643 -0.017349178 0.016187351
0.0932915 0.03372185 0.25635874
0.21182674 -0.033948842 -0.0034134835
0.12848726 0.03636556 0.25411156
0.2860803 -0.051805634 -0.16158047
0.16296911 0.01807732 0.11070582
0.27490377 -0.06345276 -0.13927858
0.19270086 0.0013128344 0.076353535
0.11090206 0.032791637 0.28432912
0.18483613 0.005747427 0.097372964
0.18205693 -0.0069044316 0.10279544
0.25904903 -0.06057552 -0.14952499
0.28513235 -0.050805405 -0.15472305
0.2421869 -0.026590273 -0.07925088
0.2432918 -0.05169067 -0.123846315
0.22214024 -0.039764203 -0.033127904
0.19347763 -0.023602553 0.016095031
0.2555231 -0.03410999 -0.08762328
0.2159341 -0.022350783 -0.043020867
0.124520816 0.028754644 0.25348076
0.20890033 -0.032298762 0.006017439
0.18202746 -0.017146286 0.061832495
0.16140734 0.006986508 0.15807214
0.20093387 -0.0033294198 0.0643647
0.17030181 0.013942714 0.09152068
0.21805517 -0.012983404 -0.01353696
0.2678656 -0.065461904 -0.12781787
0.19046924 0.0025711497 0.08226404
0.26095548 -0.037173085 -0.09452175
0.14851856 0.026225375 0.1635539
0.1427463 0.005002709 0.15475065
0.24290642 -0.051473375 -0.08159229
0.14482892 0.018177286 0.20249288
0.19005148 -0.021670694 0.05362668
0.13819131 0.031499147 0.22995308
0.09709508 0.030743532 0.2512049
0.12635642 0.03138226 0.25279373
0.27893126 -0.05121467 -0.16450575
0.17861243 -0.0152206905 0.040131085
0.16258326 -0.006182515 0.11355201
0.23721915 -0.048266575 -0.0974901
0.27406487 -0.05390549 -0.16581514
0.14885688 0.013398074 0.12627968
0.15119253 0.024717635 0.18300459
0.21265683 -0.009939503 -0.018096536
0.24143995 -0.037288226 -0.045701534
0.18856752 -0.020833952 0.04055735
0.16627875 0.016211154 0.10346102
0.1650025 -0.007546614 0.09545681
0.11410774 0.021150801 0.23992169
0.23546776 -0.042018574 -0.10245349
0.14072852 0.010883745 0.20246936
0.26151186 -0.061964203 -0.16118282
0.27443704 -0.056764856 -0.13105415
0.1758356 0.010822446 0.12081039
0.17661436 -0.005920982 0.051268265
0.1629001 0.006122292 0.091063306
0.20325576 -0.029116023 0.010171838
0.25346613 -0.057427563 -0.10218424
0.13149591 0.0113463495 0.19210088
0.2679097 -0.041094285 -0.13018265
0.15528454 0.022410326 0.1302053
0.1829304 0.0025823563 0.048315674
0.18178499 -0.014172202 0.095369995
0.15316513 0.0055835787 0.17253298
0.1780148 -0.0078762015 0.10957678
0.20930186 -0.032432534 0.021984145
0.15519321 0.022461833 0.18038118
0.28463238 -0.053604 -0.14738183
0.23824719 -0.048846226 -0.11241698
0.20447633 -0.021202141 0.043638848
0.13453916 0.009630386 0.19290742
0.12924123 0.012617661 0.19749838
0.2744206 -0.0447655 -0.15479852
0.14109235 0.023389122 0.152282
0.15764174 0.021081198 0.15274598
0.15420067 0.023021474 0.14387384
0.24157554 -0.046099305 -0.055606708
0.2153062 -0.025538443 -0.045290522
0.16595139 -0.008081649 0.077438645
0.23566741 -0.023057645 -0.018925786
0.28014442 -0.054688457 -0.16326566
0.19890018 -0.013216275 0.06319976
0.24955487 -0.030744761 -0.10204017
0.11155075 0.03884995 0.2265338
0.21198934 -0.026420007 0.023347978
0.11862948 0.043078583 0.27368307
0.1735806 0.00980142 0.13752721
0.10829906 0.02737407 0.2834524
0.16990937 -0.0103133945 0.10439882
0.2300404 -0.019741375 -0.062736504
0.2219461 -0.015643688 -0.047349043
0.23782773 -0.02413232 -0.048830472
0.22848949 -0.018866876 -0.02114264
0.12839013 0.01309756 0.1710698
0.122865506 0.016212668 0.20736662
0.1859193 0.0051366724 0.09514156
0.14389837 0.004353123 0.16607854
0.25028974 -0.049496107 -0.07623598
0.19627048 -0.025177332 0.0241443
0.13294038 0.010531863 0.18926278
0.16623968 -0.0017583724 0.13912416
0.1560933 0.021954298 0.15946788
0.18465796 -0.018629514 0.047375746
0.16138656 -0.005507745 0.09475625
0.11323628 0.028009664 0.27456602
0.24594562 -0.028709652 -0.045630276
0.19671082 -0.02542561 -0.004952483
0.20640971 -0.024703825 -0.027111337
0.1142941 0.026304245 0.2706468
0.21982661 -0.038459636 -0.022628896
0.17306185 0.0123864515 0.08546543
0.26174816 -0.037620045 -0.1151575
0.21114784 -0.033566043 -0.04006076
0.256355 -0.058823604 -0.09821428
0.2271534 -0.018113514 0.002490878
0.1140168 0.035632633 0.21822709
0.21377982 -0.032605134 -0.050061382
0.12821177 0.013198132 0.1997169
0.23402211 -0.038671613 -0.03281922
0.25110674 -0.041337304 -0.06889334
0.25146616 -0.056299847 -0.13264593
0.17948599 -0.009264724 0.10520208
0.1534644 0.023436619 0.16470878
0.16777822 -0.009111729 0.074145325
0.15358907 0.014418155 0.18137798
0.19728692 -0.014039532 0.002263762
0.117005855 0.02104503 0.25962877
0.24952823 -0.047751922 -0.07284939
0.24625668 -0.052681882 -0.07189502
0.16026938 0.019599583 0.1283144
0.24015442 -0.025444236 -0.08477599
0.2818653 -0.050795868 -0.13893864
0.2770171 -0.04631767 -0.16633368
0.133926 0.009976108 0.15479608
0.1563182 -0.0026499005 0.119587824
0.11546993 0.021478157 0.19991755
0.17598936 0.005345989 0.12797679
0.11287383 0.021846559 0.25098687
0.16433325 0.017308142 0.13894887
0.20559981 -0.026101628 0.036096867
0.11197965 0.02235075 0.22273234
0.23952663 -0.041565042 -0.10983444
0.15823254 0.0059971837 0.09998497
0.2236293 -0.022412207 -0.05802255
0.20649062 -0.030940028 -0.0078353435
0.23159401 -0.043375384 -0.03325423
0.23459905 -0.022311794 -0.05188579
0.22118412 -0.039225087 -0.048710458
0.21384704 -0.010610612 -0.016006812
0.21189934 -0.0124674495 -0.024374977
0.27376688 -0.04439688 -0.1292719
0.21035016 -0.03311625 -0.01229535
0.2317309 -0.04517196 -0.09176093
0.23941599 -0.025027871 -0.07671056
0.20458579 -0.023200678 0.041239362
0.23138931 -0.020501964 -0.013498269
0.23534615 -0.026582882 -0.022160046
0.23062412 -0.044547908 -0.06438448
0.22837895 -0.04328195 -0.07290695
0.2800573 -0.06254097 -0.14828256
0.15476325 -0.0017731357 0.14326519
0.25374052 -0.033104874 -0.11421304
0.11485553 0.04084407 0.22230223
0.11297513 0.024350189 0.20790222
0.1296004 0.028657071 0.24351577
0.1125396 0.044530567 0.28850037
0.26398423 -0.038880885 -0.12130521
0.24804412 -0.044080324 -0.12911728
0.25351384 -0.03297706 -0.064928055
0.24253783 -0.05126555 -0.08726974
0.18965687 -0.021448182 0.038051542
0.12627004 0.014292989 0.21823561
0.24418505 -0.05219434 -0.11502548
0.19974902 -0.003625555 0.008881532
0.19619784 -0.0057605365 0.013437189
0.27186722 -0.04332577 -0.11615635
0.17611323 -0.013811497 0.057282865
0.22497392 -0.04136198 -0.032959394
0.102683336 0.038855113 0.2437489
0.17637683 -0.00646439 0.11430062
0.20089561 -0.027785238 -0.000723429
0.16806127 0.00020302087 0.13773526
0.15100214 0.022595495 0.19534707
0.14692429 0.0026469287 0.16483589
0.21852495 -0.02169475 -0.04733116
0.20341052 -0.029203296 0.022723325
0.25516534 -0.058385674 -0.10401409
0.1385549 0.021791484 0.21862425
0.12049021 0.029841837 0.26249292
0.2546403 -0.038338147 -0.072469085
0.21987157 -0.02428471 -0.052778825
0.09909753 0.04643656 0.2828248
0.23443592 -0.041243143 -0.03643634
0.23354909 -0.026048811 -0.01808796
0.24115986 -0.040643066 -0.11199521
0.17372113 -0.012462692 0.05765695
0.14974613 0.0010558087 0.14236651
0.18613464 -0.019462153 0.022155207
0.114013955 0.04333709 0.22666365
0.23435044 -0.029639695 -0.08673873
0.15805182 -0.003627425 0.10987579
0.11444911 0.045435708 0.25748876
0.20285967 -0.028892688 0.026596732
0.260117 -0.036700297 -0.12840584
0.11692617 0.035778455 0.27590632
0.20905861 -0.007910621 0.048975978
0.13147438 0.035835877 0.21601072
0.21703628 -0.036835477 0.002155371
0.11215879 0.046727136 0.23706765
0.12152555 0.04144561 0.23094597
0.18531416 0.0054778797 0.084873624
0.11874303 0.043014552 0.24162903
0.16358946 0.017727533 0.103934385
0.22194546 -0.020823395 -0.05301602
0.2429687 -0.04344219 -0.055402756
0.2348704 -0.022530418 -0.0799681
0.15947291 -0.004428719 0.12297045
0.27766192 -0.062891036 -0.16242799
0.16969536 0.014284673 0.1083058
0.12007044 0.018779926 0.2512024
0.15498242 0.012762193 0.17686167
0.2338896 -0.04638917 -0.05340475
0.237636 -0.040030062 -0.10448543
0.20452718 -0.011144105 -0.008619316
0.26814663 -0.04122787 -0.14293957
