-0.4069261 -0.06835477 0.28876373
-0.48246333 -0.2708465 0.27049726
-0.4536658 -0.2523954 0.26997048
-0.46369392 -0.16966149 0.31339535
-0.50076926 -0.30000138 0.33968785
-0.53438556 -0.34383336 0.27079532
-0.51216686 -0.38085657 0.3086406
-0.39372176 -0.17320317 0.31280595
-0.50796235 -0.37322605 0.30491686
-0.37871298 -0.14552599 0.29296404
-0.47471476 -0.19510272 0.34065866
-0.40094995 -0.18581793 0.31169462
-0.4309805 -0.23113182 0.26966593
-0.43757617 -0.12533149 0.33609095
-0.48120686 -0.248035 0.33997706
-0.38854957 -0.03846471 0.32415128
-0.50143623 -0.23425284 0.28852385
-0.4906397 -0.34222043 0.2960268
-0.3348574 -0.06961784 0.30910414
-0.49736422 -0.27654636 0.270833
-0.44218805 -0.18980235 0.270667
-0.56549054 -0.3685196 0.3357932
-0.36687306 -0.015867963 0.3404932
-0.56902146 -0.3518371 0.27265793
-0.4231503 -0.22306785 0.2859677
-0.4317237 -0.1776208 0.33970708
-0.440998 -0.24712329 0.33883375
-0.43146923 -0.11106187 0.27165028
-0.35129324 -0.082085386 0.26981616
-0.45789927 -0.25562632 0.2700394
-0.531273 -0.29678473 0.34061936
-0.3897556 -0.16505891 0.2951655
-0.5503062 -0.3771691 0.27222282
-0.43664202 -0.11985573 0.278823
-0.40444452 -0.18284228 0.33883557
-0.50762933 -0.3235787 0.27035692
-0.4965697 -0.29795328 0.27045882
-0.5308512 -0.28642616 0.29650873
-0.49268758 -0.3393532 0.26966766
-0.39544576 -0.16565336 0.3388584
-0.41060004 -0.07585557 0.30445707
-0.500189 -0.35843813 0.28787085
-0.3916482 -0.041448846 0.28749007
-0.51966286 -0.26891175 0.3282625
-0.4541358 -0.22260854 0.33961448
-0.5309135 -0.2850007 0.2735938
-0.37472612 -0.019475296 0.27151856
-0.50949293 -0.2716421 0.27126285
-0.5593089 -0.37204087 0.27776167
-0.46487868 -0.29647154 0.28818887
-0.48081106 -0.25452676 0.33985913
-0.41364622 -0.20778751 0.30693266
-0.4801587 -0.29971516 0.26995715
-0.45073083 -0.20014863 0.33988494
-0.5000744 -0.23491076 0.33404005
-0.4102865 -0.17418607 0.27000424
-0.5080517 -0.2474187 0.31169906
-0.39596838 -0.102326736 0.3399126
-0.5126041 -0.38190478 0.31282932
-0.48220608 -0.30124968 0.33913264
-0.36156875 -0.10714379 0.26970094
-0.442574 -0.22847974 0.3391851
-0.41690582 -0.157908 0.3396037
-0.4703039 -0.18223771 0.3279116
-0.5651186 -0.35472453 0.27150193
-0.557912 -0.33857915 0.34070092
-0.31303054 -0.04043205 0.3207402
-0.49746436 -0.32620764 0.27002096
-0.37845212 -0.13082832 0.26979867
-0.3511263 -0.09901534 0.3216024
-0.5361425 -0.29700983 0.31583735
-0.39512825 -0.088603064 0.3401136
-0.4161904 -0.08678746 0.3211477
-0.32256 -0.046672642 0.28884625
-0.43939674 -0.14862403 0.2712623
-0.38324338 -0.1145207 -0.28867826
-0.3693195 -0.08580291 -0.2568919
-0.4180506 -0.1754261 -0.2916526
-0.40066385 -0.033804372 -0.31833684
-0.54530215 -0.37457913 -0.31976217
-0.39064348 -0.06929669 -0.25600678
-0.3627829 -0.07729338 -0.30821452
-0.44781256 -0.10316911 -0.26307923
-0.53083956 -0.33183968 -0.25627634
-0.5550778 -0.28864583 -0.30531988
-0.56886923 -0.34445688 -0.25538787
-0.57690763 -0.36201608 -0.29364064
-0.5292832 -0.24584761 -0.26822576
-0.46383935 -0.25560862 -0.2946459
-0.5147189 -0.3207325 -0.25655845
-0.42695487 -0.10003738 -0.25546518
-0.50341225 -0.2008138 -0.26250523
-0.33800113 -0.034987465 -0.2903153
-0.58507824 -0.3442937 -0.26080683
-0.38450253 0.007980898 -0.2632013
-0.37342903 -0.0309048 -0.25587267
-0.44856778 -0.1575289 -0.3189871
-0.44492897 -0.095415115 -0.30326748
-0.42405212 -0.08015558 -0.3184237
-0.50629646 -0.20623702 -0.25713056
-0.34475705 -0.029573098 -0.25667676
-0.4256007 -0.18787092 -0.30373988
-0.4277674 -0.19390827 -0.27039152
-0.43082407 -0.13949034 -0.2560011
-0.4076187 -0.030668616 -0.29203558
-0.51961684 -0.30682325 -0.25618914
-0.5418341 -0.38199514 -0.30254355
-0.40937868 -0.10486485 -0.2560507
-0.36930877 -0.08883317 -0.30696866
-0.3774309 -0.10562819 -0.26909885
-0.42014885 -0.17780474 -0.31113473
-0.5731203 -0.3526494 -0.25539982
-0.52684075 -0.24165958 -0.26673567
-0.42735505 -0.0637697 -0.31512308
-0.3600707 -0.07432908 -0.28138578
-0.5839145 -0.33844262 -0.3176602
-0.34555957 -0.048159182 -0.29176736
-0.5069598 -0.20662194 -0.26877043
-0.58443475 -0.34259838 -0.2692494
-0.46967262 -0.14123255 -0.26774174
-0.43836004 -0.21180153 -0.2808754
-0.4201234 -0.17809203 -0.306179
-0.45364693 -0.23954591 -0.26731995
-0.50735915 -0.33437863 -0.25925758
-0.5022088 -0.19780663 -0.27586114
-0.39292216 -0.09802714 -0.3196137
-0.4143767 -0.04349731 -0.2776298
-0.50616086 -0.3270235 -0.32010937
-0.37703583 -0.0738993 -0.31967542
-0.41993195 -0.06662242 -0.3183203
-0.45551264 -0.11563042 -0.27885008
-0.45671195 -0.2450884 -0.26490498
-0.44315934 -0.2187539 -0.3028662
-0.38810378 -0.11411026 -0.3200164
-0.53041375 -0.3128201 -0.31917763
-0.46800587 -0.2640539 -0.2777615
-0.39049444 -0.01202628 -0.25507128
-0.5610993 -0.30185282 -0.2659614
-0.40816814 -0.15887275 -0.27977723
-0.45118034 -0.23301089 -0.3002384
-0.5458863 -0.2728086 -0.30085987
-0.53150713 -0.3256848 -0.25615612
-0.46300057 -0.12977514 -0.2639273
-0.45339423 -0.16250168 -0.25572854
-0.53772175 -0.2612079 -0.2600691
-0.57886773 -0.33023703 -0.30789423
-0.4042155 -0.060818836 -0.3186778
-0.3905483 -0.12884966 -0.2662079
-0.41184282 -0.06349473 -0.318502
-0.5131448 -0.34269714 -0.25696424
-0.47814167 -0.15276492 -0.31753585
-0.5369265 -0.38450354 -0.28584945
-0.5583607 -0.372581 -0.25662276
-0.49741608 -0.28094453 -0.256404
-0.59086734 -0.35287708 -0.28438708
-0.39310652 -0.13087627 -0.2569463
-0.50049686 -0.3204155 -0.2878689
-0.48157912 -0.16237643 -0.2641313
-0.44542253 -0.11044836 -0.31830516
-0.39988583 -0.01802814 -0.2780802
-0.47203106 -0.20525345 -0.2558932
-0.56118137 -0.3709743 -0.26371095
-0.5557642 -0.3740601 -0.28069764
-0.4666396 -0.21191955 -0.2561579
-0.49909827 -0.31582817 -0.31969944
-0.5621735 -0.37040913 -0.31025082
-0.4509119 -0.16696337 -0.3190744
-0.39266074 -0.08027193 -0.3193299
-0.49971712 -0.29260927 -0.25652912
-0.4364895 -0.20785093 -0.2908315
-0.446481 -0.2027749 -0.31978968
-0.39438832 -0.05757749 -0.25570658
-0.3939504 -0.02510263 -0.25518632
-0.40971223 -0.16181797 -0.27627504
-0.39037162 -0.124581665 -0.25692177
-0.5314344 -0.37275708 -0.31727713
-0.45215443 -0.17902993 -0.3192366
-0.49308795 -0.2959966 -0.3199768
-0.53190136 -0.37511373 -0.29433006
-0.48476395 -0.292788 -0.28798878
-0.546136 -0.37954462 -0.29761952
-0.46625662 -0.13469443 -0.2758231
-0.535759 -0.25765842 -0.26161766
-0.47419828 -0.27217522 -0.31881258
-0.54237443 -0.26933408 -0.2606913
-0.42596558 -0.10661635 -0.31880277
-0.53568435 -0.25425157 -0.31052637
-0.5043192 -0.19921362 -0.3101666
-0.5161036 -0.23287813 -0.25507694
-0.48611537 -0.169386 -0.27837265
-0.56993127 -0.36598998 -0.30216393
-0.4591436 -0.236542 -0.25677788
-0.48084226 -0.2446822 -0.31948754
-0.49862534 -0.31578016 -0.3080208
-0.56886935 -0.31612396 -0.2565464
-0.4382906 -0.086435676 -0.2633402
-0.4027865 -0.14923805 -0.282571
-0.49742916 -0.30451226 -0.25679037
-0.40019625 -0.14443871 -0.2863349
-0.5881501 -0.355612 -0.30864856
-0.45511758 -0.15569563 -0.31876835
-0.4588955 -0.15465239 -0.3186424
-0.51737726 -0.3518835 -0.260483
-0.4840599 -0.16397652 -0.30526206
-0.40494758 -0.026326224 -0.28685758
-0.5508125 -0.31530154 -0.2554296
-0.35036144 -0.05727212 -0.2815678
-0.35382202 -0.05167979 -0.31997952
-0.49712956 -0.286469 -0.31970406
-0.49044296 -0.30148295 -0.3070191
-0.5194547 -0.24626511 -0.2552001
-0.54634225 -0.2835037 -0.31823772
-0.5236344 -0.2345053 -0.2895095
-0.49124214 -0.2918685 -0.31996226
-0.41901797 -0.1756016 -0.31438687
-0.49079454 -0.18744515 -0.3182616
-0.49147284 -0.17795682 -0.2908292
-0.4061094 -0.07598555 -0.255671
-0.516814 -0.34938064 -0.28308788
-0.5760909 -0.34722915 -0.31842646
-0.44293532 -0.20138909 -0.25666794
-0.5616851 -0.29990268 -0.31042987
-0.43841192 -0.21113044 -0.292255
-0.4623721 -0.22062863 -0.31962487
-0.43148082 -0.071094766 -0.3138955
-0.4532112 -0.10931113 -0.3128755
-0.58765674 -0.34623456 -0.2994107
-0.5848342 -0.34195912 -0.28926533
-0.38869023 -0.12239826 -0.31382754
-0.48539633 -0.16854873 -0.27202773
-0.5417689 -0.27278897 -0.2549925
-0.55268717 -0.37029162 -0.31947908
-0.46302223 -0.25536603 -0.2768505
-0.47834647 -0.27980825 -0.31357387
-0.5756274 -0.32513624 -0.2991197
-0.4737708 -0.18505591 -0.3187128
-0.45169187 -0.11779761 -0.255044
-0.39049685 -0.05686514 -0.31900814
-0.5397967 -0.30221918 -0.25553226
-0.4892208 -0.24108411 -0.31918713
-0.5211151 -0.35460627 -0.3178006
-0.4559641 -0.14901523 -0.2554332
-0.53860176 -0.29283655 -0.31861386
-0.4098539 -0.14413542 -0.2566814
-0.43963844 -0.088540524 -0.26724163
-0.47704917 -0.2813058 -0.25721478
-0.36895093 -0.048991486 -0.25629845
-0.54202425 -0.26775113 -0.27514684
-0.5279486 -0.36770934 -0.30127817
-0.48869413 -0.1735133 -0.28434172
-0.51972675 -0.35495088 -0.27626848
-0.40628278 -0.03763868 -0.3182379
-0.48353225 -0.16593984 -0.26212066
-0.43916252 -0.21446878 -0.2620871
-0.53379583 -0.26438624 -0.2550843
-0.5000173 -0.19448599 -0.26799762
-0.41128188 -0.138497 -0.25654778
-0.32941094 -0.031101257 -0.30074486
-0.5679865 -0.31434274 -0.26000112
-0.42581344 -0.06425464 -0.26747778
-0.45453084 -0.24141574 -0.26257113
-0.39582705 -0.11811063 -0.25665843
-0.41914564 -0.051704615 -0.28008717
-0.56760556 -0.3133389 -0.2650036
-0.5361552 -0.38180673 -0.3058961
-0.38118234 -0.020182297 -0.25547338
-0.36823097 -0.07181162 -0.25669366
-0.52476084 -0.23560396 -0.3026307
-0.41556892 -0.069360316 -0.2552898
-0.45251894 -0.111683965 -0.25930646
-0.33642924 -0.031997442 -0.29375753
-0.5481681 -0.3448183 -0.31919128
-0.3959421 -0.11592013 -0.3198203
-0.39358026 -0.006750107 -0.2811934
-0.43072078 -0.19627643 -0.3124413
-0.5015521 -0.19737002 -0.26516593
-0.54041624 -0.38280272 -0.28273395
-0.38666606 -0.105204314 -0.25671056
-0.561772 -0.37063786 -0.2857575
-0.55378324 -0.3538072 -0.319177
-0.4854966 -0.169166 -0.26544008
-0.51880246 -0.31188482 -0.31949678
-0.5143337 -0.32597393 -0.25665557
-0.4453393 -0.19787534 -0.31974217
-0.44492492 -0.16795744 -0.3192632
-0.5164039 -0.22239026 -0.28087756
-0.44039306 -0.1176458 -0.255367
-0.52044165 -0.30275005 -0.31929967
-0.46329623 -0.129994 -0.26840925
-0.4382769 -0.15886818 -0.2561044
-0.36567345 -0.08498703 -0.2691105
-0.53327274 -0.32101494 -0.31922975
-0.52791786 -0.2424528 -0.28312364
-0.37103805 -0.094399035 -0.26919463
-0.5460012 -0.29746842 -0.3184767
-0.55268705 -0.28536618 -0.29162475
-0.5161661 -0.34690395 -0.30308408
-0.588495 -0.34689713 -0.31148928
-0.5007659 -0.31087667 -0.25679868
-0.5531768 -0.37553388 -0.29996982
-0.43115938 -0.18267548 -0.31990123
-0.5353421 -0.3827119 -0.27107295
-0.51518965 -0.34679088 -0.2791792
-0.44856912 -0.102321446 -0.2955641
-0.45849693 -0.24460626 -0.31888637
-0.54343426 -0.3810836 -0.2598009
-0.50548035 -0.2698319 -0.3191905
-0.41852576 -0.17812565 -0.2638031
-0.39191973 -0.043152362 -0.31874213
-0.4438992 -0.11572519 -0.25523448
-0.3582396 -0.06887847 -0.31477073
-0.4832874 -0.25703204 -0.25641862
-0.43291456 -0.1248786 -0.25570112
-0.36896336 -0.02582167 -0.2559179
-0.571334 -0.34771204 -0.31857142
-0.5657917 -0.36834806 -0.30996275
-0.36635697 -0.08448404 -0.2945347
-0.5510756 -0.28329712 -0.28027803
-0.42390823 -0.18540758 -0.2961579
-0.5217894 -0.23098391 -0.29372752
-0.50429976 -0.20287102 -0.25505194
-0.47361156 -0.18460448 -0.25550884
-0.52145875 -0.26597518 -0.3186669
-0.38630804 -0.0427085 -0.25569534
-0.37172052 -0.08791062 -0.32005847
-0.45989266 -0.24827841 -0.30064353
-0.36298528 -0.045081884 -0.25640616
-0.4154935 -0.1420957 -0.2564855
-0.40801486 -0.15680727 -0.25694233
-0.56130135 -0.37090594 -0.31911802
-0.5128088 -0.27385926 -0.31904545
-0.37000346 -0.091547504 -0.28465107
-0.54644823 -0.31071466 -0.31868118
-0.51950324 -0.22768852 -0.2830067
-0.38303837 0.010279596 -0.25914562
-0.4006238 -0.13084923 -0.2567293
-0.39863127 -0.14152563 -0.28880912
-0.3954757 -0.00994736 -0.2831368
-0.4481479 -0.23051354 -0.2580446
-0.5040952 -0.20027241 -0.28848806
-0.492554 -0.17949879 -0.29614395
-0.5371903 -0.28610292 -0.31854403
-0.45559543 -0.11715174 -0.258307
-0.4354462 -0.2073684 -0.27069128
-0.42294067 -0.18302551 -0.3063625
-0.58654416 -0.34589505 -0.27531865
-0.42316866 -0.18664384 -0.25831732
-0.33093318 -0.025320739 -0.24939074
-0.5454526 -0.2736745 -0.27656525
-0.36739957 -0.0866625 -0.289337
-0.33053088 -0.030463293 -0.26899397
-0.5186271 -0.2590714 -0.25543407
-0.3767643 -0.055447683 -0.25617933
-0.40875542 -0.14619745 -0.31994805
-0.46534052 -0.25808161 -0.29706967
-0.44744408 -0.17762227 -0.3193492
-0.41422716 -0.04352607 -0.2732809
-0.4127298 -0.16533324 -0.30288225
-0.4176993 -0.07940398 -0.31859437
-0.43121153 -0.17251843 -0.31973305
-0.56887615 -0.35067976 -0.31869093
-0.44032168 -0.08750978 -0.30053738
-0.47183096 -0.15808146 -0.2551249
-0.5117834 -0.21186486 -0.31691948
-0.47740358 -0.27785072 -0.31808725
-0.44958854 -0.23247206 -0.2665625
-0.52291584 -0.36072582 -0.27363268
-0.434057 -0.2022647 -0.31047815
-0.4079363 -0.13036378 -0.25651067
-0.5800956 -0.33202457 -0.31338733
-0.5511117 -0.32734215 -0.3188197
-0.47293723 -0.27402252 -0.25818133
-0.4078188 -0.15643317 -0.3070425
-0.42730063 -0.17143749 -0.31982797
-0.5041084 -0.20110172 -0.27645263
-0.41805172 -0.06471984 -0.25514212
-0.3759168 -0.0188341 -0.25560293
-0.47454613 -0.14987612 -0.2664271
-0.5726936 -0.36441654 -0.2971113
-0.41854855 -0.096966594 -0.3188581
-0.33802885 -0.029548094 -0.25687018
-0.36378676 -0.08007406 -0.29301104
-0.3782276 -0.10575867 -0.28803194
-0.45789826 -0.24483782 -0.29973835
-0.40278223 -0.14704981 -0.31512898
-0.42141926 -0.12621273 -0.3192553
-0.5678122 -0.31226483 -0.2864555
-0.36432275 -0.065049574 -0.2566953
-0.4844312 -0.25319633 -0.25632274
-0.57697535 -0.36197752 -0.2894784
-0.34700796 -0.051854372 -0.2745605
-0.44022405 -0.090016216 -0.26055822
-0.43801576 -0.08415322 -0.29021358
-0.5409055 -0.38252407 -0.2904198
-0.5800987 -0.36019838 -0.29093432
-0.4755429 -0.17159377 -0.2552397
-0.5612602 -0.36334962 -0.3191182
-0.40199134 -0.10104948 -0.31940204
-0.48469067 -0.26521078 -0.2565124
-0.42447105 -0.06205915 -0.26507303
-0.34866437 -0.05460766 -0.27686873
-0.33520967 -0.031206176 -0.27360633
-0.48832655 -0.27301025 -0.25653565
-0.5542587 -0.35546854 -0.25598943
-0.56006634 -0.30039623 -0.26063645
-0.57455873 -0.36335412 -0.3131299
-0.3920474 -0.0043044537 -0.27753106
-0.3537607 -0.061203063 -0.31197262
-0.3740012 -0.09621012 -0.3198186
-0.48232487 -0.29003933 -0.265098
-0.44331783 -0.10477057 -0.2550715
-0.36521232 -0.08066717 -0.32012707
-0.5694887 -0.315298 -0.28511164
-0.45735136 -0.11643019 -0.31510112
-0.4801154 -0.22203879 -0.3191369
-0.57768106 -0.3291652 -0.29279527
-0.38725516 0.0031149536 -0.2626983
-0.44957304 -0.23036009 -0.29768816
-0.34654257 -0.050810277 -0.27795085
-0.52673626 -0.24174848 -0.26266977
-0.46246427 -0.1273621 -0.28589687
-0.372437 -0.06554966 -0.3196709
-0.47370812 -0.17993915 -0.2554295
-0.54503345 -0.35234493 -0.25620392
-0.4676018 -0.2628873 -0.28458896
-0.4834516 -0.27094787 -0.31984338
-0.38905808 -0.09517594 -0.31967822
-0.40393406 -0.053101346 -0.3185593
-0.5091344 -0.20982262 -0.27798072
-0.56361735 -0.35192245 -0.3188628
-0.36722326 -0.021564424 -0.25589818
-0.39837778 -0.06346053 -0.31888932
-0.5206651 -0.22936207 -0.28847423
-0.53295565 -0.25122595 -0.28418016
-0.39302814 -0.0041331053 -0.30579358
-0.3978893 -0.012990847 -0.3009578
-0.5320251 -0.36481225 -0.31998438
-0.3402726 -0.038057193 -0.30401918
-0.3646559 -0.08183785 -0.28945765
-0.41150507 -0.16560572 -0.26671454
-0.4096332 -0.034639895 -0.28554377
-0.46306655 -0.2546488 -0.2887207
-0.4476999 -0.22597575 -0.31405056
-0.3696043 -0.09114091 -0.2802598
-0.5568004 -0.30340326 -0.25506186
-0.384876 -0.117931604 -0.28054494
-0.44021282 -0.1948273 -0.31983984
-0.37029767 -0.091352105 -0.29527906
-0.55736387 -0.3731488 -0.26385805
-0.43304124 -0.1482697 -0.31928244
-0.48111185 -0.16196653 -0.2580043
-0.43465284 -0.0777836 -0.29716972
-0.5138113 -0.34471858 -0.27399245
-0.5715463 -0.31827736 -0.29455954
-0.53429526 -0.3345994 -0.3194232
-0.5242858 -0.3606198 -0.31112158
-0.5383968 -0.31773585 -0.2558272
-0.43165028 -0.13508968 -0.2559051
-0.44882149 -0.15269329 -0.31890047
-0.5805323 -0.35995135 -0.27167702
-0.43749744 -0.08543268 -0.25752684
-0.4069999 -0.03013876 -0.28372756
-0.4632234 -0.1683611 -0.3187427
-0.4339343 -0.07920402 -0.25713056
-0.45642453 -0.11835402 -0.26208705
-0.50587624 -0.33069298 -0.27541742
-0.45938605 -0.21266861 -0.3195803
-0.5517522 -0.2827331 -0.30643412
-0.51420295 -0.2740771 -0.25580773
-0.5358446 -0.2897926 -0.31864333
-0.48263782 -0.16232651 -0.29262492
-0.38214046 -0.11154054 -0.30426487
-0.5103973 -0.28233108 -0.31925395
-0.45003727 -0.1878544 -0.3194424
-0.56420135 -0.3062999 -0.28087172
-0.5011039 -0.23090951 -0.31867787
-0.5383709 -0.38396788 -0.29359728
-0.38042963 -0.016466334 -0.2554341
-0.47920552 -0.28424406 -0.26986364
-0.33931574 -0.03609419 -0.30824742
-0.4275284 -0.06489335 -0.30289096
-0.46245357 -0.24354546 -0.3199986
-0.52224624 -0.232234 -0.2870382
-0.4039216 -0.057181627 -0.3186266
-0.370971 -0.07039897 -0.3197927
-0.45799422 -0.12059769 -0.26973045
-0.5799073 -0.33552986 -0.25611869
-0.40815908 -0.12891339 -0.31968158
-0.40372133 -0.025616214 -0.2653187
-0.5645813 -0.30587226 -0.29721364
-0.45510745 -0.13480176 -0.25522465
-0.48472407 -0.29342106 -0.2774917
-0.4572357 -0.14401819 -0.2553146
-0.45095468 -0.23502618 -0.26423666
-0.48359564 -0.24701779 -0.31944656
-0.43167758 -0.072264895 -0.3015829
-0.5689059 -0.31480995 -0.27712244
-0.35959774 -0.073763296 -0.27743757
-0.52669126 -0.23879969 -0.30551508
-0.5147692 -0.34753138 -0.25710508
-0.50675637 -0.20486376 -0.28968713
-0.46017456 -0.20598005 -0.31944782
-0.46377847 -0.12791258 -0.31212318
-0.5184731 -0.3258125 -0.3197348
-0.50469685 -0.20185763 -0.2805902
-0.44821137 -0.22987708 -0.2692107
-0.44224402 -0.124981105 -0.25543407
-0.5308331 -0.24927199 -0.25772136
-0.57032 -0.318363 -0.26113802
-0.48174956 -0.28694215 -0.2962603
-0.48477656 -0.23461898 -0.31920907
-0.5244626 -0.3251832 -0.31955194
-0.33852735 -0.036496148 -0.2815832
-0.40555495 -0.026061088 -0.3067353
-0.52949476 -0.37278432 -0.26603314
-0.50500095 -0.22339064 -0.2552411
-0.45699313 -0.15044126 -0.3186281
-0.46746737 -0.2641442 -0.26229987
-0.5064009 -0.25889635 -0.31898454
-0.37132224 -0.018724337 -0.2557335
-0.53113985 -0.3067295 -0.31905678
-0.47029254 -0.13936058 -0.31193745
-0.36646783 -0.044267535 -0.25629246
-0.4554792 -0.16573569 -0.3189227
-0.42467222 -0.12116888 -0.2558777
-0.4621824 -0.1254465 -0.30710897
-0.5110955 -0.23165603 -0.3184023
-0.44002822 -0.21254942 -0.31343272
-0.37189862 -0.08906026 -0.25687104
-0.3984596 -0.09576778 -0.256216
-0.46237063 -0.16274968 -0.25547403
-0.4166261 -0.17207679 -0.30432263
-0.4526104 -0.2380442 -0.26257333
-0.39997298 -0.12732103 -0.25669014
-0.34870714 -0.053461015 -0.29510796
-0.4863126 -0.29747927 -0.2585382
-0.5809301 -0.33431825 -0.30101705
-0.41784668 -0.15324251 -0.31980175
-0.47813454 -0.28210527 -0.2737263
-0.5401151 -0.26407778 -0.27995047
-0.4791506 -0.27537975 -0.25683886
-0.393125 -0.09299147 -0.31952524
-0.538166 -0.25954297 -0.29656872
-0.47412193 -0.22053029 -0.25608367
-0.43593335 -0.12157956 -0.25556004
-0.37343675 -0.073486835 -0.31977233
-0.44058037 -0.21626174 -0.27247894
-0.39396948 -0.060634762 -0.31896996
-0.42545474 -0.19056232 -0.25699383
-0.40919933 -0.08412714 -0.31891674
-0.5588968 -0.29455194 -0.31723613
-0.58118105 -0.33622625 -0.27910674
-0.4931197 -0.18173179 -0.27763268
-0.38064396 -0.058627605 -0.25611976
-0.46814778 -0.26264706 -0.3024853
-0.5567532 -0.3690269 -0.25614005
-0.4552945 -0.18730466 -0.31928194
-0.4626962 -0.2552597 -0.26989365
-0.40200737 -0.07476847 -0.2557692
-0.46699095 -0.17380224 -0.31872344
-0.4063709 -0.02738367 -0.31806707
-0.45967966 -0.1934616 -0.2560555
-0.45330897 -0.114130974 -0.25493726
-0.41679686 -0.105664566 -0.31905127
-0.5369825 -0.25802648 -0.2881905
-0.55031604 -0.37716353 -0.30303675
-0.41065603 -0.0924439 -0.31901124
-0.44976285 -0.23011476 -0.30632526
-0.5737908 -0.3394653 -0.25516418
-0.544728 -0.2726812 -0.27240503
-0.40419367 -0.025310144 -0.28226823
-0.38696623 -0.119782805 -0.3076903
-0.54739785 -0.3788258 -0.2889439
-0.48953807 -0.30121958 -0.28723502
-0.4264645 -0.06508519 -0.27214253
-0.4634887 -0.14203317 -0.2551019
-0.50169325 -0.24352075 -0.31886783
-0.45509726 -0.1123167 -0.31743568
-0.44055867 -0.16583768 -0.31935418
-0.51180434 -0.34120268 -0.27388424
-0.42827553 -0.19387817 -0.2841583
-0.5538068 -0.2889085 -0.26808688
-0.36213225 -0.07914412 -0.26353043
-0.38849348 -0.10962568 -0.3199316
-0.5220041 -0.3217368 -0.2563651
-0.39583683 -0.122995704 -0.31993946
-0.46900672 -0.16433086 -0.2553088
-0.4888971 -0.2979039 -0.31993705
-0.44997406 -0.20327553 -0.25649613
-0.48834145 -0.17085591 -0.31806004
-0.5100323 -0.21279246 -0.25717372
-0.4325962 -0.0794687 -0.3181663
-0.43509728 -0.16165015 -0.25624165
-0.39713407 -0.014738619 -0.2550702
-0.4149139 -0.16815639 -0.31797752
-0.4845001 -0.2691955 -0.25658327
-0.41295195 -0.05503741 -0.25513014
-0.5490035 -0.27974328 -0.27902776
-0.5218435 -0.35742348 -0.29483086
-0.5622864 -0.30187875 -0.29668936
-0.5087763 -0.32121718 -0.31993875
-0.5892321 -0.34856176 -0.3059545
-0.34069097 -0.0382735 -0.31175473
-0.46506983 -0.13058504 -0.30607
-0.48552758 -0.16966105 -0.25886047
-0.5347179 -0.25277984 -0.3071682
-0.55911636 -0.32201463 -0.25530055
-0.4290382 -0.19389752 -0.30385834
-0.42218015 -0.1826345 -0.2922667
-0.5045506 -0.32860836 -0.27179605
-0.46789366 -0.14103603 -0.25495863
-0.36392313 -0.081980765 -0.26811838
-0.41337556 -0.039656803 -0.30872846
-0.51499265 -0.22022054 -0.27628303
-0.41083598 -0.038213134 -0.2637204
-0.46056682 -0.12277773 -0.3046099
-0.5365023 -0.3664984 -0.25668195
-0.36556166 -0.08370279 -0.28535447
-0.3829077 -0.115396425 -0.26680523
-0.51650804 -0.22333369 -0.2695221
-0.34932396 -0.052869722 -0.32010302
-0.49712235 -0.18976516 -0.26260322
-0.5661077 -0.34032598 -0.31860077
-0.5621343 -0.37043142 -0.27213082
-0.4252017 -0.14437431 -0.25624323
-0.43252337 -0.15788639 -0.25625402
-0.46544325 -0.25701448 -0.3156942
-0.37792283 -0.1037222 -0.31044888
-0.47087494 -0.2670669 -0.30797473
-0.459517 -0.13910688 -0.25516826
-0.39370933 -0.006657228 -0.28596267
-0.5133218 -0.25989437 -0.2556004
-0.5919076 -0.35281235 -0.3126189
-0.42828423 -0.11507104 -0.31887472
-0.49559712 -0.22444935 -0.31873047
-0.50335526 -0.2616904 -0.3191181
-0.44371998 -0.09248358 -0.31534752
-0.47305334 -0.14424539 -0.31136715
-0.38169405 -0.10987696 -0.3174014
-0.4942611 -0.24890521 -0.25596914
-0.33560812 -0.0329383 -0.25818935
-0.5327497 -0.24921232 -0.30884543
-0.5616575 -0.2995884 -0.3144
-0.3780715 -0.008778438 -0.25537586
-0.4235856 -0.16285636 -0.31979418
-0.46165597 -0.12705559 -0.26928812
-0.37213084 -0.042675823 -0.31930435
-0.44187886 -0.21926355 -0.26169595
-0.4490857 -0.10502517 -0.26873752
-0.3648566 -0.053361967 -0.31968927
-0.3988047 -0.059991986 -0.255619
-0.4055729 -0.11637378 -0.2563492
-0.40142602 -0.020070523 -0.28795582
-0.4962984 -0.2357769 -0.31889617
-0.44781274 -0.11701174 -0.25514287
-0.4402715 -0.08819589 -0.2889794
-0.41272402 -0.051018268 -0.25507075
-0.57830095 -0.33249298 -0.2593577
-0.39798808 -0.01466386 -0.2785693
-0.5333359 -0.3254453 -0.31930062
-0.5086794 -0.33323675 -0.3109081
-0.51585746 -0.24611935 -0.31850246
-0.4881174 -0.2938421 -0.2568835
-0.49365142 -0.30897018 -0.27932763
-0.35403645 -0.034515634 -0.25649056
-0.41589296 -0.17017746 -0.31346413
-0.58062446 -0.347085 -0.25509235
-0.3557201 -0.04727976 -0.25665152
-0.5568513 -0.2982344 -0.31817672
-0.47716787 -0.24561767 -0.31960875
-0.4239101 -0.06828384 -0.31823298
-0.40556204 -0.12583882 -0.31970596
-0.5311557 -0.3742165 -0.2881833
-0.48670647 -0.23894744 -0.25602338
-0.46534574 -0.2575339 -0.30538356
-0.5168427 -0.29747635 -0.3193168
-0.51263916 -0.34308368 -0.26768118
-0.4079339 -0.031490922 -0.31808946
-0.45607406 -0.11469433 -0.30754033
-0.4143494 -0.16801822 -0.3052446
-0.47547123 -0.20363566 -0.31896868
-0.5036143 -0.32407337 -0.31496307
-0.4374541 -0.20997626 -0.28438276
-0.35070705 -0.056852996 -0.29688394
-0.44604212 -0.22372329 -0.30422977
-0.53073764 -0.28344905 -0.31868637
-0.5217651 -0.23573007 -0.3181618
-0.58423823 -0.35454503 -0.3183118
-0.42740366 -0.06652619 -0.2752433
-0.5263221 -0.36571363 -0.28844357
-0.5135706 -0.21515152 -0.31469098
-0.50529706 -0.33020967 -0.26745376
-0.5680076 -0.3670858 -0.2593618
-0.41165823 -0.046573937 -0.25502852
-0.51409876 -0.22033657 -0.31813005
-0.41225278 -0.1662465 -0.27674446
-0.5331162 -0.37584108 -0.31531253
-0.56551427 -0.31033078 -0.2551024
-0.5144613 -0.22042054 -0.2593694
-0.5027755 -0.19834015 -0.2827471
-0.5478369 -0.31214455 -0.2554635
-0.44390154 -0.09409428 -0.29605907
-0.34740755 -0.043716133 -0.32003364
-0.5437423 -0.27984577 -0.25505146
-0.35574368 -0.022074625 -0.25623724
-0.55868804 -0.37239456 -0.28838575
-0.45211023 -0.22819501 -0.2568435
-0.5467844 -0.30141455 -0.25531775
-0.53961086 -0.32529494 -0.3191174
-0.42417312 -0.18479362 -0.31226653
-0.5602896 -0.36818442 -0.25602436
-0.55851567 -0.3361162 -0.25554925
-0.53051347 -0.24475777 -0.31674042
-0.50620747 -0.24237129 -0.31871894
-0.46876317 -0.26452836 -0.29052663
-0.57971 -0.3604198 -0.2664661
-0.57237095 -0.33434695 -0.31832224
-0.44524562 -0.22138187 -0.31831166
-0.4990581 -0.20423277 -0.31829903
-0.5180937 -0.33841985 -0.25675148
-0.49134356 -0.17675158 -0.30543464
-0.5266572 -0.31254625 -0.31928137
-0.54260087 -0.29020068 -0.3184554
-0.5104568 -0.3122036 -0.3197424
-0.43378305 -0.10168423 -0.25529552
-0.3742096 0.0032972097 -0.2526671
-0.53452873 -0.29806885 -0.25561592
-0.43285897 -0.07410839 -0.3050237
-0.3522186 -0.060933992 -0.2755724
-0.5088942 -0.27106553 -0.3191124
-0.47011775 -0.26745775 -0.28229463
-0.56701744 -0.3676499 -0.31349963
-0.53339005 -0.37932557 -0.2704661
-0.5395752 -0.2666887 -0.31815675
-0.45254797 -0.11062428 -0.2758882
-0.40136296 -0.14744323 -0.27205703
-0.4282034 -0.12958282 -0.31911516
-0.40870273 -0.16086411 -0.26405758
-0.46487752 -0.25633404 -0.31102508
-0.5416079 -0.38212395 -0.26276767
-0.37523884 -0.10113838 -0.27867833
-0.45006043 -0.16283473 -0.31903118
-0.3744573 -0.09923211 -0.28665444
-0.417742 -0.081586316 -0.2554278
-0.5769569 -0.361988 -0.25702432
-0.4082905 -0.16058536 -0.2569964
-0.3857755 -0.03259653 -0.3187459
-0.5367375 -0.32846826 -0.31925225
-0.58981717 -0.35466245 -0.2775641
-0.3525427 -0.05995883 -0.2986255
-0.46839118 -0.26612094 -0.25700054
-0.570027 -0.33815998 -0.31845233
-0.43132418 -0.16012615 -0.31952646
-0.5204115 -0.28269014 -0.31897137
-0.49545455 -0.18881914 -0.3181499
-0.5710664 -0.3351937 -0.25517258
-0.34426245 -0.04528457 -0.30068806
-0.4951399 -0.19294198 -0.31822664
-0.53436303 -0.37976897 -0.28934878
-0.490691 -0.17680845 -0.28748202
-0.40301484 -0.13036613 -0.31985363
-0.53055155 -0.24769041 -0.27395508
-0.49115 -0.3041691 -0.2854466
-0.41635826 -0.17128137 -0.30917814
-0.50070673 -0.19489476 -0.27996436
-0.46216944 -0.18104286 -0.25578
-0.39129746 -0.08080438 -0.25617677
-0.55679107 -0.3706287 -0.3193664
-0.39525676 -0.010290936 -0.27226973
-0.3999148 -0.016943276 -0.29503623
-0.47753948 -0.15343803 -0.29170293
-0.54846257 -0.36138266 -0.25625345
-0.46371958 -0.1886152 -0.2558596
-0.47093797 -0.21310908 -0.2560536
-0.4666938 -0.23013724 -0.3196564
-0.40728143 -0.041589245 -0.2550728
-0.37359244 -0.097108945 -0.29568484
-0.34546596 -0.037683576 -0.25678945
-0.4080897 -0.1580292 -0.2903153
-0.53596723 -0.38353783 -0.2751257
-0.4837726 -0.28777665 -0.3201103
-0.40180185 -0.038408816 -0.25517848
-0.58937526 -0.35009497 -0.28681597
-0.48268723 -0.28845727 -0.25695157
-0.40148115 -0.1450623 -0.31070188
-0.42310292 -0.05800253 -0.28977928
-0.51609725 -0.34566265 -0.31981128
-0.49350002 -0.30929643 -0.2704895
-0.4003317 -0.06707823 -0.31889242
-0.34075344 -0.03794828 -0.31824735
-0.4432472 -0.21136405 -0.25682265
-0.40419993 -0.14978334 -0.3114747
-0.58346295 -0.3387655 -0.30100533
-0.37565023 -0.10273096 -0.26568437
-0.43798226 -0.09848145 -0.31832314
-0.42458576 -0.05925423 -0.309956
-0.39174598 -0.044233844 -0.25556374
-0.37008277 -0.089780614 -0.31310958
-0.45854113 -0.24873504 -0.25840288
-0.5882624 -0.3502574 -0.25522235
-0.5761313 -0.32854098 -0.26149482
-0.44777563 -0.13232458 -0.31859636
-0.4744952 -0.15055671 -0.25493127
-0.55376303 -0.37520003 -0.3077786
-0.5196028 -0.31459045 -0.256317
-0.5376837 -0.27464885 -0.25514072
-0.50988555 -0.33575493 -0.3049251
-0.4281237 -0.0826453 -0.25514612
-0.55319124 -0.2866862 -0.28513065
-0.4951017 -0.18622503 -0.26249647
-0.53319454 -0.260984 -0.31824693
-0.5113724 -0.21352607 -0.28134474
-0.46505284 -0.13147366 -0.292358
-0.42635208 -0.06414734 -0.28319743
-0.47053987 -0.17455897 -0.2554325
-0.52984226 -0.31288123 -0.25599396
-0.48274684 -0.1622568 -0.29652265
-0.4006883 -0.14399174 -0.3059041
-0.55186737 -0.33868837 -0.31898412
-0.45580065 -0.11579302 -0.28397104
-0.40672213 -0.0805036 -0.31892863
-0.4144797 -0.17048407 -0.271845
-0.4564935 -0.2440283 -0.2750065
-0.5119537 -0.2685321 -0.3189827
-0.41738743 -0.046101317 -0.3176616
-0.4194882 -0.17934373 -0.27084258
-0.5409747 -0.3824847 -0.3064242
-0.50693583 -0.2749441 -0.31923243
-0.52215534 -0.36027163 -0.25699306
-0.43659353 -0.18271789 -0.25654426
-0.5362367 -0.26516056 -0.31822783
-0.55999076 -0.2967567 -0.3129918
-0.44666338 -0.16659927 -0.25598967
-0.44508237 -0.19518873 -0.25650436
-0.4832343 -0.18902986 -0.25530425
-0.4478516 -0.17417146 -0.2560797
-0.38324445 -0.0773581 -0.31955332
-0.46957135 -0.13851187 -0.31807002
-0.4819368 -0.26166147 -0.2565335
-0.35620025 -0.0069615096 -0.251023
-0.39558154 -0.011473209 -0.26313037
-0.43839926 -0.21252766 -0.27106342
-0.5309708 -0.3742336 -0.28308132
-0.5525047 -0.36183155 -0.25614437
-0.5895238 -0.35104173 -0.27657476
-0.47330415 -0.14512458 -0.30481532
-0.5001521 -0.31958136 -0.29128408
-0.5670166 -0.31004164 -0.2987951
-0.40300626 -0.022485003 -0.29332533
-0.35957503 -0.07228522 -0.2989092
-0.46173805 -0.154621 -0.25535887
-0.4248593 -0.06021142 -0.30283466
-0.4697774 -0.2659855 -0.2953544
-0.520216 -0.22967017 -0.27210307
-0.4160694 -0.044008136 -0.31436706
-0.39941552 -0.017696619 -0.2707036
-0.4750446 -0.25733504 -0.25666106
-0.48495033 -0.2943092 -0.2701627
-0.38856068 -0.12509039 -0.27023867
-0.5790889 -0.3576088 -0.25530928
-0.50792265 -0.20718989 -0.2855262
-0.4004367 -0.020506978 -0.25550961
-0.47368717 -0.14779672 -0.27495965
-0.425272 -0.1891931 -0.2753838
-0.35985172 -0.042703614 -0.2564574
-0.48829895 -0.2718161 -0.319718
-0.34859687 -0.029889688 -0.25657135
-0.3475925 -0.0522808 -0.28351486
-0.42372975 -0.060015455 -0.27615577
-0.41285807 -0.042092577 -0.25879908
-0.39623395 -0.13590169 -0.30994076
-0.5703143 -0.3611422 -0.25562003
-0.37592745 -0.087506205 -0.25672948
-0.4957239 -0.25515494 -0.3192307
-0.36287728 -0.031384036 -0.31938565
-0.5442553 -0.27093488 -0.28608918
-0.44608173 -0.22514632 -0.284023
-0.5577028 -0.3180707 -0.25527656
-0.5149571 -0.34714565 -0.26778716
-0.50448996 -0.24766183 -0.2556541
-0.48360056 -0.16237664 -0.31805748
-0.4516602 -0.14761512 -0.2555342
-0.5481753 -0.29168785 -0.31831923
-0.45569184 -0.114800096 -0.29594287
-0.5035194 -0.32461068 -0.3044557
-0.50315607 -0.32534984 -0.28389657
-0.44236898 -0.21919402 -0.27558047
-0.47254777 -0.20933956 -0.25594535
-0.42423958 -0.18695736 -0.28170308
-0.47876677 -0.23807684 -0.31943893
-0.5337181 -0.38056147 -0.2569929
-0.3461607 -0.012680382 -0.25238466
-0.39235893 -0.13163215 -0.27212214
-0.39903474 -0.063707694 -0.25567332
-0.35568094 -0.06583339 -0.29317114
-0.471766 -0.18956642 -0.31884456
-0.4317647 -0.13790718 -0.31914917
-0.3953635 -0.13720739 -0.2676336
-0.4516015 -0.23408523 -0.29523662
-0.4371012 -0.08188072 -0.3001711
-0.4492789 -0.21226743 -0.31986484
-0.51356286 -0.34262314 -0.29876518
-0.35676304 -0.0666154 -0.3098574
-0.37717128 -0.102661 -0.30659357
-0.5268675 -0.3208169 -0.319411
-0.4564467 -0.24489182 -0.2608873
-0.48689863 -0.28182608 -0.25672144
-0.4586457 -0.12544726 -0.31817037
-0.42484105 -0.18622077 -0.30846533
-0.56389904 -0.31901497 -0.3183147
-0.40784127 -0.15858999 -0.27543053
-0.46904564 -0.14066526 -0.25977805
-0.43574798 -0.17829539 -0.25649604
-0.55610406 -0.33871156 -0.2556613
-0.44947904 -0.221795 -0.32001543
-0.4504127 -0.23099566 -0.31020543
-0.44227624 -0.19137199 -0.25652257
-0.3940948 -0.119238794 -0.319928
-0.4639764 -0.2554463 -0.3006611
-0.54152954 -0.28575194 -0.25521213
-0.42687106 -0.17999105 -0.3199807
-0.53588665 -0.37116143 -0.31997734
-0.5242495 -0.23849161 -0.31813553
-0.56494117 -0.30585077 -0.3069686
-0.39352208 -0.0079206675 -0.26219234
-0.43045816 -0.10543628 -0.318654
-0.46971142 -0.20256898 -0.3191171
-0.5533881 -0.3434587 -0.31901857
-0.4216861 -0.057124123 -0.2657596
-0.5000427 -0.23652844 -0.31880066
-0.54763925 -0.3689162 -0.31960192
-0.51162505 -0.21534967 -0.260741
-0.3823741 -0.06685932 -0.31940612
-0.4130476 -0.10337773 -0.25592062
-0.47893083 -0.15691987 -0.27618578
-0.5653334 -0.36516398 -0.2558295
-0.48440653 -0.293969 -0.26098898
-0.3977049 -0.1411457 -0.2702014
-0.4220785 -0.13051574 -0.25610578
-0.46856558 -0.26235765 -0.31775606
-0.33101198 -0.030189246 -0.2926718
-0.40816706 -0.03129664 -0.29703152
-0.3379947 -0.037196085 -0.2571731
-0.35445282 -0.06396431 -0.2888881
-0.5005911 -0.2817004 -0.31952608
-0.36733302 -0.08497368 -0.31280613
-0.39895126 -0.016067594 -0.28285605
-0.42023024 -0.054171517 -0.2716841
-0.530235 -0.33936137 -0.3196183
-0.38002887 -0.11016123 -0.26951337
-0.5255458 -0.3641268 -0.29178715
-0.44028634 -0.15299705 -0.3191513
-0.45017904 -0.10590437 -0.2842664
-0.5237663 -0.34238523 -0.25665313
-0.3769861 -0.10380034 -0.2847308
-0.5639771 -0.30636868 -0.27396822
-0.45183462 -0.23634508 -0.26760802
-0.43653193 -0.150687 -0.31922156
-0.5224174 -0.36056778 -0.2629287
-0.42941436 -0.0774025 -0.2550229
-0.54691017 -0.27755463 -0.2568389
-0.364331 -0.0046755522 -0.25570434
-0.43449628 -0.2059201 -0.26741716
-0.5512768 -0.30903667 -0.25531343
-0.43089443 -0.19885388 -0.27851164
-0.4919799 -0.20339179 -0.255288
-0.37183294 -0.0036747158 -0.25547183
-0.48673406 -0.2968216 -0.27940366
-0.47438025 -0.14826572 -0.28612205
-0.57069445 -0.31559536 -0.3122731
-0.44034493 -0.13890964 -0.2557173
-0.46363944 -0.19793282 -0.25601482
-0.38149202 -0.00021675229 -0.25513685
-0.5749446 -0.3233969 -0.30719158
-0.5090513 -0.3351314 -0.29237133
-0.5520408 -0.32081175 -0.31868577
-0.48870647 -0.18487798 -0.2550785
-0.47492343 -0.19297336 -0.3188095
-0.5116754 -0.21337447 -0.2915501
-0.51832855 -0.23313291 -0.31821817
-0.39453977 -0.13362789 -0.2994846
-0.34143555 -0.042040423 -0.2750306
-0.57896173 -0.36084598 -0.31312877
-0.3920626 -0.07036322 -0.3191845
-0.4976811 -0.31551906 -0.28717065
-0.39972818 -0.05731821 -0.31874964
-0.4342228 -0.14113076 -0.31913126
-0.4578464 -0.12010601 -0.27319685
-0.5336702 -0.2522485 -0.2876414
-0.5298118 -0.3705747 -0.30733132
-0.42954594 -0.19734299 -0.26572603
-0.5194012 -0.3516752 -0.31664032
-0.3833925 -0.082095385 -0.3196268
-0.5448077 -0.26997367 -0.3149162
-0.58123034 -0.356389 -0.31842873
-0.5682031 -0.36697447 -0.27901897
-0.50431406 -0.21305594 -0.25509125
-0.5410372 -0.32998013 -0.25595206
-0.37236077 -0.055669427 -0.31951097
-0.5864633 -0.3565729 -0.28804407
-0.52879214 -0.24619392 -0.25492993
-0.39444083 -0.007683575 -0.28981218
-0.49367142 -0.26155323 -0.25619367
-0.3811663 -0.11066 -0.2918785
-0.5593176 -0.29821193 -0.27362388
-0.51756054 -0.22310796 -0.3004782
-0.39885667 -0.017566174 -0.25800356
-0.55398893 -0.28981075 -0.25938988
-0.5789187 -0.36058092 -0.3185641
-0.48475632 -0.18019076 -0.3183165
-0.4065738 -0.063064545 -0.2554456
-0.4368603 -0.083109096 -0.2755175
-0.50691867 -0.33327836 -0.2641395
-0.5503018 -0.29773712 -0.31835723
-0.46257508 -0.14359844 -0.31835502
-0.44560874 -0.095825225 -0.31496075
-0.4905424 -0.17764667 -0.27107286
-0.44424346 -0.18783008 -0.3196089
-0.5282965 -0.3610142 -0.32002947
-0.52579015 -0.26765352 -0.25536853
-0.43820372 -0.09378962 -0.25503862
-0.45974052 -0.123396605 -0.2737123
-0.51960975 -0.35349113 -0.29499465
-0.45734075 -0.11805016 -0.2906376
-0.3519426 -0.009386823 -0.24977718
-0.41696918 -0.11159453 -0.2559425
-0.4088966 -0.115246624 -0.25623494
-0.40342286 -0.057652652 -0.25544757
-0.3811268 -0.11145453 -0.27898028
-0.58367497 -0.33883333 -0.30554798
-0.5584444 -0.35535234 -0.25586694
-0.33687967 -0.03339772 -0.2846569
-0.36712384 -0.039332345 -0.31939372
-0.5161854 -0.24240243 -0.318432
-0.42103177 -0.05388418 -0.29698178
-0.5437976 -0.2913822 -0.2552392
-0.5311125 -0.30948305 -0.2559016
-0.34650338 -0.022823036 -0.25651568
-0.48991352 -0.17623344 -0.27569005
-0.45073387 -0.20541053 -0.31971043
-0.58672947 -0.35642123 -0.30461478
-0.50844383 -0.2992912 -0.31958854
-0.46486613 -0.2551459 -0.32011947
-0.44662932 -0.2077933 -0.31986776
-0.52432644 -0.3052528 -0.2560277
-0.40480214 -0.13313244 -0.2566464
-0.41855174 -0.048433587 -0.31335807
-0.56707346 -0.36761793 -0.28239244
-0.49236205 -0.19659708 -0.2551655
-0.37704468 -0.061928958 -0.31947875
-0.3791813 -0.021522507 -0.31875414
-0.42961204 -0.19453299 -0.3094107
-0.5279724 -0.2440854 -0.26017874
-0.45983505 -0.16521357 -0.31878865
-0.46845505 -0.16252096 -0.31849614
-0.40668285 -0.112467304 -0.31945425
-0.4529376 -0.22306961 -0.25673556
-0.39166343 -0.0046916157 -0.2616871
-0.525867 -0.3425475 -0.31979644
-0.40733823 -0.12048614 -0.25636584
-0.3429681 -0.044497162 -0.2785204
-0.3839178 -0.05465713 -0.31916142
-0.42543435 -0.1903896 -0.26177564
-0.40652633 -0.02801244 -0.3030606
-0.50339717 -0.32697958 -0.26588327
-0.42320675 -0.05722776 -0.30406734
-0.37957036 -0.10762893 -0.29530317
-0.37172997 -0.09488389 -0.2800902
-0.56153375 -0.33907214 -0.31871197
-0.39832723 -0.13978007 -0.3069021
-0.46391243 -0.13045797 -0.27763197
-0.5204038 -0.24859205 -0.31841207
-0.43269676 -0.16895555 -0.31963181
-0.5707307 -0.32927018 -0.25508505
-0.5696456 -0.3661528 -0.25616875
-0.009948209 -0.5442709 -0.33796856
0.07548314 -0.4039201 -0.29458627
0.06903298 -0.40612918 -0.3379769
0.025336117 -0.47077456 -0.32874224
0.10896137 -0.4558115 -0.2964022
-0.0023681521 -0.58555025 -0.33886427
0.09730938 -0.39723152 -0.33864546
-0.0540694 -0.63939506 -0.2947183
0.025392681 -0.602311 -0.30165353
-0.048233807 -0.60149837 -0.30529436
0.04548961 -0.56529415 -0.32757783
0.13244717 -0.4146069 -0.2964026
-0.0030836463 -0.6357838 -0.29612777
0.10384843 -0.36196655 -0.33825514
0.1163784 -0.4162444 -0.29596657
-0.023924053 -0.6045123 -0.2950143
0.122118026 -0.43106073 -0.32326114
-0.013878524 -0.621709 -0.33912602
-0.022950947 -0.68637264 -0.3136941
-0.00933978 -0.59279764 -0.33878237
0.13552518 -0.38774872 -0.33959073
-0.033050776 -0.57462347 -0.3085918
0.12339513 -0.3860791 -0.29567373
-0.020735428 -0.5884102 -0.3383821
0.011402339 -0.49540594 -0.32619786
-0.018728614 -0.6342134 -0.29565132
0.14671646 -0.37574217 -0.33971608
-0.043274134 -0.59088415 -0.33377185
0.12998214 -0.3949139 -0.29600844
0.0047454834 -0.5955877 -0.3392339
0.0009638369 -0.59854984 -0.29563338
-0.023745656 -0.58116835 -0.29463637
-0.0029998124 -0.63186526 -0.33960608
0.040182814 -0.55755234 -0.3396306
-0.07807642 -0.65426236 -0.2996989
0.11031619 -0.45303798 -0.3044655
-0.004796803 -0.6031469 -0.29554287
0.034052104 -0.48927242 -0.33833355
0.024488166 -0.5260144 -0.338661
0.12700105 -0.38805652 -0.29581004
0.04839818 -0.43376717 -0.29429582
0.060354263 -0.41608393 -0.29435006
-0.054849446 -0.6126393 -0.31235576
0.04348679 -0.48612988 -0.33855376
0.13652 -0.37432957 -0.3393992
0.0011864603 -0.566822 -0.33865935
-0.024511546 -0.6685158 -0.3395878
0.032363802 -0.58952785 -0.30979338
-0.028188288 -0.6503087 -0.33918312
0.09483506 -0.43922433 -0.29572308
0.030766904 -0.493595 -0.33830982
0.13916641 -0.40138823 -0.31943575
0.12032373 -0.4140364 -0.296044
0.0009012222 -0.64319444 -0.33318213
0.0911542 -0.4847639 -0.33303073
-0.068329185 -0.636029 -0.31644875
0.0455229 -0.5399219 -0.29595494
-0.01620014 -0.5450916 -0.30784827
-0.0007415712 -0.5452763 -0.33825025
0.10566209 -0.38242346 -0.33864307
0.08136174 -0.37364364 -0.31048256
0.08496462 -0.39781043 -0.29475915
0.100114495 -0.45335755 -0.33964723
0.07842259 -0.46630397 -0.29569465
-0.028983682 -0.68301105 -0.30222896
0.06633349 -0.50768864 -0.29602548
0.107871234 -0.45741823 -0.30315018
-0.074249834 -0.65722597 -0.321585
0.05860366 -0.4814219 -0.2953718
-0.058599472 -0.6175921 -0.33669713
0.07025862 -0.51056945 -0.339726
0.007695496 -0.6318034 -0.3251731
0.10990673 -0.40395278 -0.33911863
0.12555239 -0.42525294 -0.31995708
0.01617977 -0.6182152 -0.30567265
-0.0134675205 -0.670662 -0.29969406
0.10150811 -0.46813136 -0.30997983
0.103051454 -0.45016345 -0.29613927
-0.053281322 -0.6236961 -0.33802357
0.11997284 -0.42987162 -0.33983392
0.10268958 -0.4653744 -0.32017493
-0.02395904 -0.6504017 -0.2957663
0.11991276 -0.40552548 -0.2958925
0.11249195 -0.3762464 -0.2951983
0.05642779 -0.4822561 -0.338863
0.026130319 -0.59931386 -0.32706752
-0.0055312514 -0.56234545 -0.2948522
0.08122806 -0.50442 -0.2997284
0.00420174 -0.6389606 -0.30988625
-0.0358786 -0.6008429 -0.33814988
-0.017991394 -0.6705444 -0.3398089
-0.056502104 -0.6400746 -0.33819956
0.0837003 -0.3759549 -0.2943641
-0.029565245 -0.59476733 -0.33823204
0.07249519 -0.39865088 -0.29441375
0.05117321 -0.4831567 -0.3387264
0.07036333 -0.4553104 -0.33882225
0.053439587 -0.5512805 -0.3284333
0.12448321 -0.40709168 -0.33959004
0.08060914 -0.5030867 -0.33585662
0.060351387 -0.47444788 -0.33884788
0.13498704 -0.40944722 -0.30865568
0.0027504861 -0.5714637 -0.33878058
0.0627048 -0.42436445 -0.29455367
0.01692751 -0.61522305 -0.33074808
0.0065603107 -0.50363564 -0.33023816
0.04782793 -0.5248555 -0.33931428
0.09465103 -0.36063474 -0.33796835
0.024501055 -0.60247827 -0.32252637
0.0016469955 -0.58094645 -0.2953642
-0.003923416 -0.6529133 -0.3145327
-0.0523459 -0.6067517 -0.3346397
-0.047347635 -0.6484262 -0.29506013
0.09614661 -0.47706863 -0.31707048
0.06510553 -0.53158903 -0.31666398
0.03311543 -0.46435112 -0.33789763
-0.014840633 -0.54337406 -0.29785928
-0.016956389 -0.56053275 -0.3380335
0.06901011 -0.41595724 -0.29459733
0.07557386 -0.4571874 -0.33900315
0.07354836 -0.42638987 -0.33843943
0.09195222 -0.42295313 -0.3389132
0.021965146 -0.52510077 -0.29503313
0.038559943 -0.44695705 -0.3377427
0.118026495 -0.43871936 -0.31615657
0.07311611 -0.3884251 -0.30591214
0.070000336 -0.3921968 -0.33126473
0.030317143 -0.46276134 -0.31782764
0.060496032 -0.51808244 -0.33956805
0.015897274 -0.5579889 -0.33893818
-0.05341062 -0.6690967 -0.3083859
0.11954318 -0.37811527 -0.29543206
-0.010104001 -0.58430266 -0.33862096
-0.023332894 -0.5582862 -0.29780227
-0.060411632 -0.6229373 -0.30439064
0.11481814 -0.3711847 -0.3387224
-0.04946883 -0.61309016 -0.33795935
0.06719008 -0.39845693 -0.3377979
-0.013649404 -0.6696937 -0.3189174
-0.041249245 -0.6760242 -0.31457886
0.10711916 -0.40788192 -0.29556262
0.04265617 -0.5703615 -0.32618576
-0.05970955 -0.6202323 -0.32637483
0.05133605 -0.4267892 -0.30398923
-0.048561692 -0.6457772 -0.33852187
0.0047813654 -0.5082572 -0.33780187
0.026777923 -0.46975878 -0.30611834
0.11579019 -0.4414698 -0.33370557
0.11477947 -0.41641295 -0.33946347
0.044496 -0.56658876 -0.33429053
0.041256607 -0.46148384 -0.2945449
-0.055431843 -0.62001014 -0.33790115
0.009977758 -0.62452686 -0.3398595
0.054882035 -0.41871622 -0.33157834
0.05618252 -0.47767612 -0.33878076
0.019813329 -0.61098015 -0.31845748
0.020617694 -0.59854954 -0.33973974
0.08425099 -0.44936424 -0.29558456
0.113815054 -0.44475633 -0.33640572
-0.048487633 -0.671901 -0.31124464
0.033386916 -0.5279194 -0.2954084
0.029096171 -0.51100457 -0.2950072
0.030238926 -0.4976713 -0.29482132
-0.024020433 -0.6575424 -0.2958817
0.04617174 -0.4341027 -0.33015335
0.08973026 -0.46943647 -0.33961195
-0.053891018 -0.6176584 -0.29436675
-0.037194222 -0.5911683 -0.29441306
0.044530794 -0.43794417 -0.3158097
0.034418687 -0.50226474 -0.3385573
0.08674994 -0.364128 -0.31132704
0.048944175 -0.46870267 -0.29488483
0.042870104 -0.5695312 -0.33297446
0.056134373 -0.5012332 -0.29562575
-0.038384378 -0.5829755 -0.32368782
-0.012830198 -0.64734125 -0.33957684
0.005209863 -0.63568306 -0.33239758
0.029756516 -0.5909439 -0.33987817
-0.03202498 -0.6234502 -0.2950917
0.010216787 -0.49946052 -0.29673693
0.09029202 -0.48764127 -0.31266972
0.099590495 -0.4657551 -0.33983558
0.08725077 -0.4286571 -0.29533118
0.040114984 -0.55119264 -0.29598412
0.0039936304 -0.62584126 -0.2961685
0.13879147 -0.37665564 -0.2959626
-0.02069652 -0.6564369 -0.33949947
0.059293434 -0.41580722 -0.33785516
0.017403126 -0.61524045 -0.3180217
-0.056478918 -0.66316366 -0.2950389
-0.05462718 -0.6684037 -0.31365857
0.14128225 -0.39866847 -0.30458614
-0.027884752 -0.66636026 -0.33945525
-0.03123495 -0.6247413 -0.3386758
-0.07408899 -0.6447403 -0.33735302
0.10411921 -0.3876493 -0.2951442
0.11298607 -0.39895475 -0.29558516
0.1502975 -0.38330075 -0.29773748
-0.06063181 -0.62359226 -0.30038252
0.08452463 -0.47180218 -0.3395008
-0.00974232 -0.5330527 -0.31833073
0.0925625 -0.48200816 -0.3372626
0.07164617 -0.3892287 -0.33244112
0.15183552 -0.3802805 -0.30251846
0.08035973 -0.3897385 -0.29449406
-0.00866878 -0.61076397 -0.33909652
-0.038843095 -0.5834837 -0.328123
0.011191964 -0.6269199 -0.30644184
-0.016163915 -0.673855 -0.32269448
-0.035355806 -0.6793813 -0.33918726
0.033663526 -0.55783105 -0.33944738
0.07049778 -0.46998662 -0.29552677
0.008267909 -0.57238984 -0.33895472
-0.020139903 -0.55124557 -0.31923074
-0.016026706 -0.6516824 -0.33955598
-0.047984123 -0.5991931 -0.33316794
0.14722778 -0.38708687 -0.3216672
-0.04358214 -0.59326303 -0.30632892
-0.008523464 -0.6338217 -0.33947906
0.07714149 -0.4951716 -0.3396716
0.1010153 -0.46722594 -0.33641374
-0.033779025 -0.5748645 -0.32407972
-0.043786287 -0.59260786 -0.32146004
0.12512961 -0.42534885 -0.329606
0.054053575 -0.5506889 -0.321173
0.04917884 -0.49664214 -0.33889022
0.016600072 -0.61723894 -0.30923334
0.10106659 -0.4686157 -0.31432062
0.14757453 -0.37799388 -0.2962376
0.079327896 -0.5061395 -0.3238585
0.08777417 -0.3628584 -0.3034372
-0.0011855662 -0.56995064 -0.29510218
-0.021988153 -0.6175104 -0.33882353
-0.021135673 -0.5930408 -0.29490638
0.050189406 -0.4545691 -0.33822894
0.13302742 -0.3791048 -0.33937693
-0.0114771575 -0.576051 -0.338446
-0.038470775 -0.58344567 -0.3189332
-0.05450356 -0.64967763 -0.3384147
0.076549724 -0.38046244 -0.33479983
-0.035814017 -0.59477496 -0.33805218
0.041367427 -0.44417742 -0.30565843
0.10492349 -0.43765062 -0.29598784
0.08511484 -0.49682748 -0.31121254
0.13912386 -0.40171003 -0.2963833
-0.038381845 -0.6697386 -0.3392083
0.09613766 -0.45510393 -0.29602116
-0.03832078 -0.58341503 -0.3154602
0.06850651 -0.5070423 -0.33961764
-0.048873335 -0.63032484 -0.3382593
0.0113131255 -0.4952373 -0.33105415
-0.06303239 -0.62693375 -0.31341302
0.005982116 -0.50589085 -0.31172112
0.09930065 -0.47035775 -0.33459687
0.110744 -0.44077587 -0.33974698
-0.0067289174 -0.6587955 -0.30024385
0.06477134 -0.4358155 -0.33834127
0.052703455 -0.5163941 -0.29577568
-0.047020137 -0.6387708 -0.3384513
0.046279415 -0.5076808 -0.33898783
-0.028784782 -0.5659613 -0.32610577
0.045924574 -0.5655352 -0.31257835
0.063192576 -0.46716902 -0.33881027
-0.024463892 -0.6236942 -0.3388537
0.10108559 -0.37914973 -0.33845752
-0.07787356 -0.6520863 -0.32686907
0.0036251098 -0.5088428 -0.32942513
0.04829654 -0.4859659 -0.33868963
0.023410082 -0.5972002 -0.29625785
0.08192149 -0.3811027 -0.3379375
0.044422388 -0.43787655 -0.31966063
0.0438336 -0.5264362 -0.29568496
-0.031162083 -0.6817702 -0.32201394
0.021333575 -0.6077578 -0.32672098
0.01063548 -0.5620014 -0.29531226
-0.013032004 -0.53869617 -0.3202968
0.12852485 -0.4197032 -0.32490695
-0.06691778 -0.6441787 -0.29442668
0.017295852 -0.48520413 -0.32404312
0.122684166 -0.4308099 -0.31216815
0.0054402053 -0.6329535 -0.33986706
0.086841375 -0.4139657 -0.3386185
-0.04337591 -0.60566735 -0.33801308
0.114371926 -0.38844317 -0.2954526
-0.06824793 -0.6606449 -0.33702028
0.082580626 -0.41949135 -0.29504624
-0.07619743 -0.64964145 -0.33778918
0.07235809 -0.38855907 -0.32377923
0.024310172 -0.5967574 -0.3398167
0.14325678 -0.39217222 -0.33988604
0.03141445 -0.5909673 -0.31318593
-0.059676737 -0.66116124 -0.29491395
-0.01373449 -0.60202545 -0.29526702
