0.21954381 0.12672123 0.18925625
0.3851908 0.080444336 0.13683853
-0.06391285 0.41026744 0.26281783
0.2745584 0.115504935 0.24746408
0.21434654 0.24281858 0.30013588
-0.039349124 0.02643919 0.2393679
-0.11909497 0.10112433 0.30613312
-0.007121645 0.023448985 0.314297
0.38314903 -0.04651729 0.02464424
0.07076268 0.10120779 0.23114283
-0.07790069 0.082209975 0.31077284
0.34128958 0.044394176 0.16594374
0.11681422 -0.11157459 0.26263806
-0.09024828 0.07373269 0.23244876
0.3431799 0.06997271 0.18066731
0.27788657 -0.05473303 0.03925062
0.28922987 0.15549704 0.15315169
0.049019955 0.3128503 0.31075037
0.13106084 0.09705399 0.21756196
0.4416407 0.09900055 0.07460993
0.08058256 0.05142474 0.2258921
0.32957405 -0.016993973 0.13913049
0.15033114 0.23996049 0.30893302
-0.115861416 0.19643036 0.20706423
0.32505602 -0.0099625625 0.14930096
0.2983453 -0.20980361 0.012630269
0.19317542 0.22452228 0.30169696
-0.19897108 0.4399778 0.0066883266
-0.15322939 0.23086531 0.18058474
-0.39628235 0.15323342 0.11469675
-0.45723733 0.16041206 -0.03114365
-0.4053865 0.13205604 0.11746453
-0.1603608 0.3024347 0.15109274
-0.2773399 0.13915405 0.2293247
-0.23119678 0.46965617 -0.14696862
-0.22701707 0.33231333 0.19058453
-0.23976217 0.36581725 0.15699281
-0.138171 0.37065807 0.14108698
-0.2512202 0.5135432 -0.062528476
-0.22365496 0.35400838 0.051080197
-0.15752587 0.28971317 0.15732698
-0.13425717 0.34251273 0.1536285
-0.30508754 0.29435432 -0.13996542
-0.2872415 0.4823799 -0.07212034
-0.28012496 0.27992043 0.02055651
-0.1534167 0.45073476 0.199022
-0.15936004 0.23766397 0.17433187
-0.22143972 0.40125728 0.15568161
-0.25707924 0.4262045 -0.14624241
-0.21097729 0.2888415 0.21908893
-0.35289526 0.36673832 -0.08241777
-0.29965702 0.28201163 -0.02455914
-0.055882063 0.40583953 0.22257987
-0.39793208 0.20176065 0.063407786
-0.33250815 0.2501014 -0.11418927
-0.26335102 0.5202318 -0.0783041
-0.30542725 0.39968288 0.030923173
-0.30686018 0.32463568 0.10897929
-0.17937636 0.47393063 0.14890668
-0.20622155 0.23051797 0.14716305
-0.3490165 0.14097376 0.17282942
-0.28331035 0.42292523 0.04909935
-0.29637554 0.41022196 0.037256703
-0.41113648 0.24220422 -0.025685102
-0.16592965 0.36356655 0.11542483
-0.27930233 0.23903175 0.18966703
-0.33051294 0.07895858 0.21667564
-0.30330145 0.29783127 -0.09187351
-0.1850047 0.47627002 0.15038294
-0.42277563 0.20225792 0.014326438
-0.26430827 0.49428374 0.009348229
-0.14625375 0.30009323 0.16083954
-0.089758776 0.29540926 0.19756293
-0.20804362 0.4431251 -0.014430597
-0.18207529 0.3698621 0.09431628
-0.331753 0.2465461 -0.092822134
-0.26196706 0.37273493 -0.09168202
-0.4064144 0.16021788 0.091591306
-0.21219341 0.26614633 0.22624004
-0.29626566 0.31218013 -0.13137302
-0.13636157 0.45021355 0.15803733
-0.46405888 0.1582664 -0.06183353
-0.2309928 0.37914675 0.009656936
-0.2764265 0.34410208 -0.15602389
-0.35849807 0.10108615 0.1862925
-0.20114854 0.48593518 0.053201787
-0.28677323 0.46776563 -0.025711343
-0.34546134 0.33690557 0.020332173
-0.29225123 0.28824973 -0.012112424
-0.36146826 0.3320489 -0.024975315
-0.31258804 0.26681292 -0.049329817
-0.34574723 0.22522256 -0.11827174
-0.3595319 0.16906872 0.14484629
-0.28739223 0.38251126 0.08466592
-0.27527395 0.4811512 -0.0032912344
-0.33659658 0.2856916 0.09283253
-0.2905465 0.39354354 0.06661651
-0.22026668 0.29534632 0.097431645
-0.19582501 0.38243186 0.1944137
-0.28532368 0.36024886 -0.14930709
-0.2980485 0.34829473 -0.14699253
-0.15920062 0.23002256 0.17709923
-0.089118324 0.424165 0.20927732
-0.3540367 0.18441597 -0.027652517
-0.3610994 0.19642872 -0.10214603
-0.3317651 0.37675828 0.0025232881
-0.374623 0.32011178 -0.060750216
-0.25583327 0.36510578 -0.035402134
-0.4227345 0.24065126 -0.08415377
-0.21863939 0.28877112 0.103083536
-0.23248446 0.39484805 -0.010174349
-0.2461237 0.31304273 0.18145868
-0.34570128 0.21485458 -0.07363257
-0.15538014 0.42822066 0.20563668
-0.39154166 0.25434366 0.019240335
-0.4228485 0.12993664 0.09210289
-0.33731228 0.33482093 0.03850174
-0.41210866 0.21074146 -0.1325713
-0.19721612 0.44845226 0.000987336
-0.31477118 0.31037512 0.10888604
-0.44295606 0.19589998 -0.05991304
-0.35468212 0.31875512 0.021869302
-0.21886283 0.46764523 -0.1520412
-0.26983815 0.23140973 0.082023636
-0.25125727 0.39130455 -0.08911748
-0.19747423 0.3506489 0.20606543
-0.19202231 0.37444746 0.20121036
-0.20585944 0.46468928 -0.062253997
-0.23029141 0.50200367 0.047624744
-0.22331907 0.49815935 -0.013652831
-0.29506272 0.15070716 0.10276177
-0.42109245 0.20664567 0.012888044
-0.30988118 0.25484458 0.14738217
-0.2205914 0.43009079 -0.03860694
-0.23512717 0.49490535 -0.14023216
-0.18460497 0.43593913 0.17474118
-0.45085 0.15431231 0.011123523
-0.410405 0.1344104 0.11066805
-0.1794938 0.35312602 0.21658194
-0.29339924 0.47136572 -0.07258156
-0.29290336 0.44444212 0.007172227
-0.16116185 0.44439894 0.072598204
-0.15375969 0.17251356 0.19881788
-0.17546375 0.41612053 0.19633535
-0.41934037 0.12809871 0.100937806
-0.3301023 0.35117686 -0.13429743
-0.19921644 0.30543703 0.114095576
-0.348883 0.38247347 -0.10814795
-0.24440324 0.4086261 -0.12015326
-0.3681525 0.18162546 0.12811999
-0.26923564 0.25284028 0.06995774
-0.2711749 0.19909579 0.21230748
-0.33236107 0.34889323 0.033014715
-0.30739406 0.23008431 0.02096627
-0.4148111 0.1876004 0.04568158
-0.37955898 0.24843368 -0.13701168
-0.2833737 0.43833435 0.03237419
-0.19899291 0.4557269 -0.010321185
-0.34505332 0.2026816 0.14048317
-0.45303768 0.13800637 0.02441664
-0.30247903 0.4414407 -0.0321929
-0.37236822 0.32400808 -0.06017083
-0.26229286 0.2549676 0.076166324
-0.1622083 0.27901357 0.15809782
-0.33885342 0.39115268 -0.079257354
-0.12767352 0.44542322 0.13004787
-0.29105482 0.2959813 0.14323378
-0.32765225 0.38934892 -0.012879148
-0.23898834 0.4008808 -0.051077753
-0.43964967 0.18799108 -0.018181622
-0.1875561 0.44620612 0.16547373
-0.12607428 0.22938664 0.19759247
-0.3980093 0.12712342 -0.13385966
-0.4539538 0.18334 -0.082080185
-0.41587573 0.22951418 -0.013396293
-0.41554916 0.22624505 -0.0018089116
-0.2989002 0.41672343 -0.13243395
-0.2621891 0.51871586 -0.04480703
-0.25642535 0.45638338 0.06558655
-0.17865455 0.41799533 0.19179009
-0.101761386 0.26362613 0.19940543
-0.37464532 0.2935928 0.009970292
-0.39204353 0.20942563 -0.14041662
-0.15893488 0.41941375 0.20646048
-0.35168865 0.18937184 -0.12394816
-0.46887928 0.1467854 -0.053616747
-0.26115575 0.19807903 0.21900421
-0.1085409 0.43487403 0.21646097
-0.16825387 0.32658026 0.13486776
-0.2676147 0.34453887 -0.03780517
-0.15664914 0.38926083 0.21843114
-0.2232814 0.19891661 0.14739372
-0.21183787 0.3630071 0.064475335
-0.209245 0.4903993 -0.059397638
-0.29745677 0.2671591 0.00043918192
-0.2679557 0.5093903 -0.048205554
-0.26462704 0.250619 0.07623487
-0.14244087 0.45356548 0.16922891
-0.24995406 0.3418656 0.16023688
-0.16719176 0.34625083 0.22676829
-0.29568264 0.2722039 -0.0015294552
-0.308782 0.15556106 0.20369667
-0.3294381 0.20842522 0.15387878
-0.2954822 0.32248914 0.12274265
-0.31152183 0.24983549 -0.008380622
-0.32755762 0.15115958 0.18987693
-0.15312606 0.42016566 0.20987503
-0.25346375 0.364102 -0.01949042
-0.26353556 0.2105708 0.101169504
-0.28319284 0.3192306 -0.046640873
-0.33092022 0.39425147 -0.045380503
-0.22787315 0.43923703 -0.11718783
-0.34779128 0.22152369 0.12635852
-0.41786 0.23286918 -0.034266993
-0.27514124 0.27680427 0.033653207
-0.20573904 0.45236722 0.14225356
-0.18913868 0.4378813 0.028160684
-0.20216341 0.294418 0.11746138
-0.20923315 0.27820265 0.11947487
-0.31556034 0.24250945 -0.008378938
-0.14011428 0.23619248 0.18702725
-0.2738963 0.42048132 0.07012889
-0.18947987 0.2414756 0.15393625
-0.352641 0.32635844 0.01766555
-0.2208693 0.1172419 0.166823
-0.25582778 0.28504977 0.18762483
-0.27708125 0.4460383 -0.13456808
-0.4446202 0.20816934 -0.105793744
-0.20307282 0.48699617 -0.026835173
-0.35038158 0.15276256 0.16436623
-0.15848589 0.45899865 0.065305926
-0.43156868 0.22031644 -0.12323591
-0.29179567 0.16585766 0.21085505
-0.21767223 0.45034853 -0.15195262
-0.39238223 0.20751888 0.068048306
-0.28613365 0.2839413 0.004483998
-0.16222876 0.21390262 0.18080845
-0.24597636 0.3390295 0.023601018
-0.46064934 0.14516658 -0.003962055
-0.25791278 0.29939258 0.17687185
-0.40552935 0.24937257 -0.016677946
-0.21445142 0.09230812 0.19018987
-0.33309364 0.38084224 -0.01696682
-0.25571805 0.4044531 -0.15128163
-0.20803773 0.4897337 -0.122646034
-0.31392497 0.39065507 0.024044752
-0.28148606 0.3442694 0.12488039
-0.34052122 0.19216801 -0.0029147565
-0.20059186 0.18546472 0.16645038
-0.38253528 0.19738935 -0.1465088
-0.21367085 0.3471916 0.1961189
-0.25015217 0.2905487 0.19046932
-0.21751834 0.49496102 0.0538183
-0.3136651 0.38746506 -0.1329499
-0.27945188 0.34266406 -0.09660636
-0.23931107 0.47270352 -0.14327267
-0.24352013 0.42560416 -0.15148383
-0.17223057 0.35043183 0.116437905
-0.25697696 0.3229495 0.16390225
-0.25620478 0.42146224 0.10364213
-0.24647102 0.4039557 -0.10103272
-0.24915622 0.31556198 0.17670047
-0.22840363 0.33765846 0.05941596
-0.2672782 0.5217296 -0.081549466
-0.22222331 0.49755517 -0.029133543
-0.4256661 0.13261005 0.0837168
-0.29736337 0.11803438 0.22402108
-0.2825303 0.24782735 0.05043471
-0.10031193 0.3020308 0.18924329
-0.3585894 0.312273 0.021217793
-0.35910386 0.3035102 -0.13327122
-0.28963813 0.46054476 -0.019633606
-0.2447776 0.47638378 0.06679831
-0.2327937 0.42302018 -0.15149267
-0.3595093 0.3297184 -0.0073180795
-0.15918641 0.35622513 0.22835454
-0.37993175 0.2999253 -0.029065445
-0.15886785 0.3488431 0.13175884
-0.27647316 0.3503531 -0.10346876
-0.39821252 0.13153118 -0.1093874
-0.20418833 0.42438373 0.013296068
-0.4087087 0.2085614 -0.13430786
-0.3007348 0.2588637 0.0029713362
-0.3357786 0.3287804 0.048006117
-0.29303494 0.36102962 0.096783824
-0.29003304 0.21385013 0.19306116
-0.31298566 0.27369058 -0.0721343
-0.34600225 0.311047 0.047134556
-0.31434098 0.14224203 0.20482597
-0.28844544 0.43489045 0.026174009
-0.39537233 0.16442788 0.10863218
-0.2817785 0.4836697 -0.046254724
-0.17608406 0.47211534 0.053802572
-0.16547096 0.33120143 0.13511986
-0.32721978 0.25678137 -0.09886442
-0.22786361 0.4323766 -0.14954297
-0.19516397 0.10306874 0.19355601
-0.33230025 0.29316247 -0.14553846
-0.31411347 0.32799473 0.09118706
-0.30036247 0.20060188 0.18980666
-0.34960142 0.25815344 0.097089656
-0.29411703 0.43742865 0.012357265
-0.23865849 0.50661707 0.005464375
-0.2175785 0.4555833 -0.09871134
-0.295181 0.46669683 -0.068265855
-0.22074595 0.42242774 -0.016951784
-0.3590841 0.19864434 -0.09782356
-0.21834219 0.33351225 0.076858476
-0.22652476 0.49992687 0.07033462
-0.278853 0.4993269 -0.07732059
-0.21146998 0.4916261 0.06652963
-0.27999735 0.34213537 -0.12925702
-0.39083272 0.19246963 0.087289125
-0.21331102 0.46267518 -0.13116916
-0.33742827 0.25034282 -0.15251242
-0.35882023 0.34966022 -0.06341535
-0.18833886 0.45120412 0.015370026
-0.34865248 0.35300618 -0.018113479
-0.30622995 0.41100785 0.017154008
-0.24376518 0.4153632 0.12329006
-0.2438816 0.49806723 0.04518734
-0.4099999 0.25415784 -0.12433387
-0.30675188 0.28078473 0.13535903
-0.256584 0.46374622 0.05734349
-0.37203944 0.33175886 -0.08164278
-0.29225487 0.30922598 -0.06594272
-0.32948807 0.25439975 -0.11973864
-0.3314281 0.1706466 0.03804096
-0.262733 0.3642427 -0.070367426
-0.064834364 0.41077557 0.20197797
-0.08801543 0.4235569 0.19031392
-0.3991712 0.14673571 0.11544287
-0.32573944 0.30362645 -0.14583704
-0.07789968 0.37171873 0.17910843
-0.21291505 0.49242285 -0.10819343
-0.33732164 0.2084961 0.14535323
-0.35120022 0.17546794 -0.0057893544
-0.4154747 0.26064205 -0.11311935
-0.27818185 0.25448304 0.051761158
-0.37424123 0.23495063 -0.14182357
-0.14028528 0.43457308 0.10089158
-0.26596963 0.3457158 -0.032381803
-0.40770668 0.25780958 -0.05385205
-0.23178253 0.29292202 0.0864778
-0.33268028 0.3378534 0.04428582
-0.1880993 0.47874022 0.12543793
-0.23156303 0.50270486 -0.022277638
-0.28917518 0.1844749 0.08906235
-0.24924293 0.47066304 0.064236715
-0.17145744 0.46956438 0.0762665
-0.40315983 0.27893338 -0.09249605
-0.3025635 0.2227453 0.17430027
-0.14124528 0.45290628 0.20241654
-0.14825389 0.41058654 0.21630183
-0.2523636 0.36928064 0.14137849
-0.2411331 0.39342827 -0.040385976
-0.2699446 0.4694635 0.025076404
-0.11737098 0.2396307 0.19861186
-0.25158963 0.3866188 -0.07686606
-0.25429606 0.3410893 0.0051245242
-0.25626528 0.46632338 -0.13820246
-0.34484294 0.379193 -0.075969204
-0.3534395 0.30224004 -0.13567291
-0.20447227 0.4877678 -0.13638078
-0.41775832 0.23717165 -0.046625838
-0.24295011 0.21843474 0.11865377
-0.1636755 0.3652433 0.22236556
-0.29272127 0.4320019 -0.13158675
-0.32211885 0.24392618 -0.03251818
-0.32180005 0.36348146 0.037934348
-0.29123735 0.32561067 -0.109575674
-0.20324452 0.4137291 0.026619159
-0.35920262 0.24545068 -0.14531374
-0.25371096 0.20342104 0.2218521
-0.33428502 0.26502594 0.115081504
-0.38404128 0.30544895 -0.06800994
-0.34970364 0.18827736 -0.07031892
-0.19489889 0.10292257 0.16431195
-0.23595862 0.36483178 0.16167039
-0.29671407 0.1522005 0.21250822
-0.2563597 0.516377 -0.0372826
-0.35872915 0.0934981 0.19054547
-0.2253408 0.41469514 0.14351144
-0.46210027 0.15860564 -0.05219288
-0.19366592 0.094978936 0.19976701
-0.3227343 0.4166751 -0.06811845
-0.20796156 0.21029404 0.1531203
-0.28767776 0.4919799 -0.10330494
-0.3069634 0.26323137 0.14554572
-0.2613508 0.49907708 0.009963155
-0.1714432 0.123276554 0.20197618
-0.24551363 0.5103968 -0.08395067
-0.21681482 0.33917958 0.07513921
-0.3828152 0.15928002 -0.10885538
-0.32588357 0.17344508 0.17845628
-0.18878177 0.43229014 0.034881756
-0.080234766 0.4176694 0.16159353
-0.27446204 0.3591509 0.12360934
-0.3020144 0.11582344 0.22184867
-0.3029932 0.29871148 -0.13733624
-0.070817605 0.4140745 0.19753441
-0.37073997 0.10681924 0.16971822
-0.16336486 0.24350575 0.16975813
-0.32824707 0.1549711 0.18687367
-0.19892934 0.47249812 -0.047969267
-0.22563589 0.4438386 -0.114628136
-0.28656906 0.48747325 -0.08374426
-0.17441396 0.4711945 0.068207674
-0.1942277 0.38708627 0.07102195
-0.2235212 0.366366 0.038026676
-0.19251868 0.4811769 0.10775848
-0.22303289 0.33111072 0.07323586
-0.23814423 0.40739912 -0.06604819
-0.24579771 0.30921155 0.056076847
-0.13437733 0.44106922 0.21444651
-0.3286495 0.25073698 -0.14412038
-0.33850726 0.38039646 -0.04509461
-0.42828888 0.17017712 -0.13490549
-0.26818544 0.45964524 0.03909196
-0.36672574 0.33666134 -0.06743489
-0.17639679 0.43967336 0.1813578
-0.38836598 0.2548645 -0.13235037
-0.15870544 0.14822204 0.2016372
-0.44880018 0.15869263 0.010409817
-0.31199983 0.1674886 0.0523135
-0.31492218 0.3233291 0.09463394
-0.30589202 0.13881955 0.21136905
-0.13221557 0.44792756 0.1681007
-0.24072358 0.33991238 0.17132735
-0.37080282 0.21625257 0.100805774
-0.2376956 0.36822805 0.008322805
-0.31930396 0.42278478 -0.06778139
-0.3687862 0.22207855 0.0984697
-0.2831028 0.39954275 -0.14196967
-0.1938936 0.4434302 0.012890711
-0.33798316 0.27321437 0.103566214
-0.41986647 0.16366726 0.06158878
-0.32333404 0.35708934 -0.13562128
-0.16861221 0.46799558 0.06882873
-0.25394908 0.2894534 0.061436012
-0.3575508 0.3419875 -0.033477202
-0.34063393 0.3427977 -0.13206671
-0.38201797 0.30903423 -0.12347528
-0.069008306 0.41307694 0.2417365
-0.45330083 0.16818313 -0.033039793
-0.22948357 0.42453626 -0.07033686
-0.18144397 0.31267574 0.12892391
-0.2099523 0.41149405 0.1619694
-0.23905142 0.49287522 -0.13917373
-0.106659755 0.4244371 0.1425049
-0.2888099 0.42901373 -0.13368441
-0.25998187 0.483367 0.029563993
-0.22586516 0.23607406 0.22808194
-0.360074 0.31467196 0.015731856
-0.3982374 0.12887742 -0.1236618
-0.24292798 0.50897115 0.0032293499
-0.25929442 0.21255131 0.104557514
-0.3034284 0.25189963 0.15607245
-0.1883218 0.44962043 0.16262446
-0.28199178 0.24203423 0.05772867
-0.30330217 0.15891041 0.08902863
-0.263681 0.2942891 0.17369242
-0.31088597 0.08115583 0.22833298
-0.2683674 0.5106982 -0.05437413
-0.32000062 0.32363868 0.084377676
-0.31208766 0.27135953 0.13520953
-0.29184338 0.3656297 0.09415678
-0.38177592 0.21093252 -0.14397758
-0.19383825 0.40746117 0.051752917
-0.35507143 0.31016588 -0.13340808
-0.34663725 0.38396418 -0.12029873
-0.36746484 0.20152158 0.11705594
-0.3919893 0.2172048 -0.13881856
-0.2571003 0.4318525 0.090696685
-0.38623655 0.15010227 -0.12620255
-0.3292475 0.19532779 0.015710264
-0.19564344 0.48033762 -0.053609297
-0.2807688 0.17081392 0.21610463
-0.36575475 0.34912854 -0.12106562
-0.22226691 0.38159734 0.16645588
-0.38295633 0.26762703 0.021705404
-0.24414352 0.35637417 0.008495495
-0.4188351 0.16987456 0.05691529
-0.33545974 0.14054482 0.18767148
-0.21580078 0.41905135 0.15119283
-0.34170994 0.2658497 0.10421751
-0.08447465 0.2636974 0.20516154
-0.28217915 0.21200134 0.080259115
-0.07526576 0.3129055 0.19918019
-0.25732553 0.23745655 0.20768547
-0.376744 0.32471123 -0.08609784
-0.19257726 0.4812092 -0.034881428
-0.37371796 0.24636786 0.062662214
-0.40739977 0.26947248 -0.08718063
-0.39182767 0.28329834 -0.043916315
-0.3803745 0.3244042 -0.112638116
-0.27529454 0.37845308 -0.14930402
-0.06885578 0.38822365 0.1790724
-0.23749775 0.3137541 0.06740077
-0.3119043 0.087564036 0.22545138
-0.25245276 0.24943139 0.2065908
-0.21680519 0.4945678 -0.023130342
-0.16810095 0.30922705 0.14382295
-0.29695117 0.47329134 -0.09769142
-0.27803865 0.22284326 0.19967419
-0.20246442 0.48666072 -0.022026569
-0.4193389 0.23945752 -0.06208965
-0.116692156 0.29692152 0.18065834
-0.23982355 0.5072594 -0.09243907
-0.16882712 0.33937147 0.12666224
-0.3486743 0.17437313 0.15338227
-0.20707843 0.48250195 0.12293373
-0.3141535 0.26466218 0.13696001
-0.3058625 0.29586115 -0.12626112
-0.22906499 0.354207 0.040293977
-0.26633132 0.43658066 -0.14059229
-0.19835775 0.104829684 0.15772519
-0.16817065 0.36651513 0.2190764
-0.1963919 0.22494926 0.15532906
-0.20157325 0.4573813 -0.017146736
-0.21560998 0.4425257 -0.04880996
-0.1231274 0.22618759 0.19916439
-0.3083617 0.21812361 0.03196206
-0.39468548 0.13200799 -0.13924144
-0.23483512 0.31422514 0.070554346
-0.2994094 0.2853215 0.1405675
-0.3827855 0.29488403 -0.029470086
-0.24311666 0.50268114 -0.13559951
-0.08116759 0.41321838 0.16255641
-0.10349745 0.39403182 0.15511844
-0.38983768 0.190303 0.09156823
-0.3865604 0.30095842 -0.06824581
-0.23419183 0.42958176 -0.15417627
-0.31294847 0.36114815 0.05774366
-0.22214401 0.45071992 -0.112047434
-0.24932402 0.39165643 0.13137363
-0.23906045 0.3941214 0.14095554
-0.16836259 0.3195322 0.13893215
-0.20856394 0.37095487 0.062310852
-0.28359684 0.27040157 0.024029225
-0.28218442 0.16238469 0.2181505
-0.328431 0.38293946 0.002117291
-0.15293106 0.38565087 0.22204438
-0.3827387 0.2936557 -0.02552794
-0.2492231 0.48456478 0.04929708
-0.23469405 0.5044312 -0.049326748
-0.31722397 0.4344157 -0.09136835
-0.14938365 0.3875759 0.11898422
-0.2986948 0.38727206 -0.13863909
-0.05804529 0.40703225 0.19485515
-0.44293684 0.18831125 -0.12560515
-0.31250915 0.22185145 0.16412847
-0.34119946 0.38194236 -0.06438778
-0.34166223 0.23766525 0.12337637
-0.25196642 0.2627869 0.082638755
-0.39189723 0.24533403 0.028253466
-0.1268592 0.44497424 0.21351206
-0.29953504 0.28728136 -0.039708406
-0.13086209 0.34662822 0.15434118
-0.13409707 0.41820356 0.1172616
-0.19752006 0.4635527 -0.015874803
-0.27607548 0.3542949 -0.15403563
-0.38202423 0.30988294 -0.07033673
-0.24972649 0.46141785 -0.14169051
-0.4178728 0.19711125 0.029450953
-0.3265561 0.23200431 -0.020893738
-0.1766056 0.37281188 0.21153955
-0.41148397 0.1677591 0.07355981
-0.2909658 0.32954687 -0.15356585
-0.3648041 0.31814227 -0.0013951063
-0.21359779 0.36413455 0.05982297
-0.34421268 0.1646623 0.16394414
-0.35911044 0.2966914 0.03698802
-0.32771134 0.2896716 0.105906695
-0.29315025 0.26424348 0.15980835
-0.21695168 0.19123405 0.15408145
-0.14184232 0.42705196 0.10367819
-0.3977212 0.17980646 0.08747335
-0.2473616 0.5114157 -0.09258105
-0.33979818 0.29302004 0.0786797
-0.16359706 0.4652304 0.14852601
-0.30255133 0.3812184 0.056437
-0.31112963 0.41974264 -0.014162317
-0.21266028 0.49228242 -0.12421675
-0.22320946 0.13416262 0.17003885
-0.31555083 0.15693316 0.19893299
-0.2531268 0.51459444 -0.084606215
-0.24055448 0.5076625 -0.0053693056
-0.32775736 0.23989701 0.13701507
-0.34564787 0.3588798 -0.019388795
-0.28375617 0.49286905 -0.08462584
-0.2395764 0.40877703 -0.077978015
-0.29343614 0.23142523 0.0467956
-0.35647112 0.34578836 -0.039009035
-0.3365045 0.21913974 -0.036433518
-0.26235676 0.3717719 -0.14034723
-0.21415567 0.38185117 0.17503344
-0.2310789 0.34679636 0.04434318
-0.20595056 0.48858285 -0.1186993
-0.41453528 0.14895375 0.08785762
-0.18366726 0.4762965 0.08625148
-0.2715085 0.28048536 0.03678546
-0.098309405 0.40341616 0.15512691
-0.32216626 0.4099952 -0.12505439
-0.36238745 0.24249488 0.08897611
-0.4512538 0.17384475 -0.038890287
-0.22176477 0.39332068 0.0124179125
-0.26978663 0.34411567 -0.048356846
-0.4106564 0.26324105 -0.08620712
-0.1891587 0.2849074 0.13709712
-0.29846707 0.45150483 -0.040560305
-0.25621456 0.19628793 0.117520146
-0.15075114 0.45814753 0.08666727
-0.23842832 0.20650293 0.1305988
-0.32625115 0.12665743 0.20272627
-0.38101745 0.13306597 0.14308763
-0.33162478 0.41120642 -0.10009824
-0.21803015 0.4952432 -0.146343
-0.35702914 0.20420668 -0.1033335
-0.17170087 0.23180942 0.16856316
-0.15097834 0.41395816 0.10161607
-0.25924435 0.20222616 0.11073713
-0.10145592 0.3712856 0.1643492
-0.35683838 0.36320168 -0.09326613
-0.34924245 0.2770091 0.07747564
-0.08829194 0.26864725 0.20297667
-0.2533219 0.37071362 -0.038559884
-0.24263331 0.3478821 0.020594738
-0.32490343 0.3506082 0.045739338
-0.31863588 0.360457 -0.13669345
-0.34896708 0.19353689 -0.027430698
-0.39302504 0.14025849 -0.11459215
-0.31766516 0.3451332 -0.14024802
-0.2055768 0.27332857 0.12630086
-0.3008123 0.27761775 0.14362864
-0.078965664 0.32437596 0.19495623
-0.3247058 0.24464607 -0.048759386
-0.30486545 0.20476824 0.05318249
-0.22501963 0.499097 0.07508835
-0.21261187 0.35517243 0.07017384
-0.30844858 0.43201584 -0.03640066
-0.3572443 0.12057584 0.17607827
-0.2937446 0.4072552 0.04559356
-0.21303564 0.49248937 -0.13103272
-0.10000078 0.2797118 0.19703393
-0.4296835 0.13882703 0.06916821
-0.3288065 0.40013728 -0.051537186
-0.26351005 0.2889275 0.043319255
-0.257412 0.1875273 0.22505635
-0.23842521 0.42770565 -0.15296915
-0.3407713 0.22657448 -0.08196998
-0.3407402 0.32124183 0.046433493
-0.43755084 0.20008652 -0.043059647
-0.09018928 0.3562655 0.1767225
-0.347812 0.14601766 0.17113292
-0.4097737 0.1209832 -0.1521274
-0.38735628 0.19436409 0.09204235
-0.21724299 0.09735589 0.18666102
-0.29633132 0.22064346 0.18225367
-0.3013609 0.4600301 -0.08189759
-0.24718843 0.38170028 0.13957882
-0.20792407 0.489671 -0.019882783
-0.30711403 0.2720431 -0.035232812
-0.28324008 0.32787472 0.13272052
-0.25191075 0.3782564 -0.053516805
-0.24561861 0.51045465 0.027070805
-0.24099225 0.5079038 -0.12388013
-0.28019392 0.22904615 0.19463205
-0.32082507 0.1648038 0.18902655
-0.23896417 0.4039716 -0.060223952
-0.40592152 0.24682361 -0.12739879
-0.10796681 0.26540643 0.1970075
-0.20205244 0.11504624 0.19010258
-0.22359663 0.06477028 0.19401222
-0.10492944 0.43288282 0.21180221
-0.2395067 0.3113409 0.18958858
-0.3912143 0.21147397 0.06606868
-0.37336084 0.33483854 -0.09807579
-0.19852881 0.48449075 0.07140257
-0.07561394 0.41671908 0.18012454
-0.37115693 0.20265947 0.11240839
-0.27576232 0.48256356 -0.010189071
-0.19226828 0.42799342 0.0326986
-0.32738248 0.33964276 0.052710116
-0.1252952 0.26798463 0.18531156
-0.33666557 0.24370116 0.12517235
-0.30883616 0.3948452 0.029475123
-0.2574917 0.5170011 -0.086750686
-0.2503068 0.47800297 -0.13802086
-0.09444481 0.4193229 0.15202132
-0.23433006 0.19273499 0.1425581
-0.28937253 0.47159913 -0.05136487
-0.29353648 0.44855803 -0.12783445
-0.32911667 0.40994242 -0.08265309
-0.24115902 0.2718039 0.20593105
-0.21382499 0.113357864 0.18126339
-0.32812524 0.38566247 -0.004390508
-0.44855952 0.17932922 -0.04068528
-0.22075169 0.45968264 0.12175907
-0.30105564 0.30274856 -0.13487408
-0.2910204 0.24450132 0.17381299
-0.35306653 0.20464757 -0.0830874
-0.23260008 0.3675066 0.019057065
-0.37178445 0.17612228 -0.12710556
-0.31748906 0.2752868 0.127067
-0.30715445 0.29631045 -0.10827975
-0.43671525 0.22167827 -0.10330714
-0.3116588 0.20297873 0.04183551
-0.29593357 0.260409 0.1590881
-0.33344397 0.23476353 -0.06666599
-0.22170502 0.4972694 -0.03740956
-0.21116011 0.4745081 -0.15351993
-0.33379167 0.39670035 -0.068357274
-0.2591747 0.4606904 0.0555737
-0.13231353 0.29761967 0.17052668
-0.24693704 0.23683879 0.214477
-0.32940388 0.33650398 -0.13761382
-0.2911246 0.13149922 0.22327083
-0.38870186 0.17002325 -0.1498756
-0.28600842 0.43161657 0.034464106
-0.44746274 0.18590632 -0.05445206
-0.3405959 0.27798593 0.093319595
-0.2747106 0.43192065 -0.13839993
-0.1870535 0.3334072 0.11058873
-0.31409103 0.29415584 0.11952917
-0.31414866 0.253704 0.14346674
-0.39178273 0.13461299 -0.15175167
-0.29346722 0.11395456 0.22791174
-0.3187603 0.43678036 -0.10682459
-0.15029393 0.3355359 0.14591247
-0.3280382 0.3576094 0.032071114
-0.29868406 0.1703137 0.08723287
-0.30839244 0.41631615 0.0072088093
-0.33921975 0.36115354 0.006402716
-0.32106507 0.38562194 0.015515655
-0.28224117 0.21757819 0.07688407
-0.2804373 0.24023968 0.062698945
-0.04852961 0.3985585 0.1883319
-0.096150376 0.4280423 0.20117746
-0.31300512 0.40147644 0.014183208
-0.22613637 0.44125578 -0.122506365
-0.21348879 0.48227224 0.11617237
-0.30509463 0.23663035 0.018405512
-0.15755805 0.46190068 0.15209512
-0.27987286 0.23658867 0.06773603
-0.1500288 0.44678208 0.08316345
-0.31191093 0.3552814 -0.14030793
-0.18860136 0.09945031 0.17618662
-0.19788122 0.2335781 0.15137435
-0.23520868 0.4226729 -0.13252093
-0.25503913 0.1836075 0.22792634
-0.3211291 0.11062844 0.21156281
-0.3191344 0.41470256 -0.042604446
-0.31649446 0.2216594 0.012260079
-0.38737586 0.20062746 0.08525503
-0.2945203 0.45488366 -0.02921772
-0.3655218 0.3368844 -0.06155029
-0.3982803 0.26389495 -0.020807281
-0.21027811 0.32568312 0.090180516
-0.37894633 0.26373932 0.033730045
-0.28442717 0.13599129 0.22594243
-0.2662322 0.5218204 -0.094713494
-0.25339743 0.39427406 -0.10967794
-0.41739568 0.20760556 0.019077241
-0.3203822 0.3091609 0.09922909
-0.20458561 0.48094845 -0.10411711
-0.19226246 0.06972638 0.20488155
-0.25511056 0.38803405 -0.12567066
-0.31563503 0.44216314 -0.11102255
-0.22155067 0.4568866 -0.15326539
-0.10034728 0.43035632 0.212179
-0.20866792 0.3841651 0.047874764
-0.18566212 0.45111656 0.020694815
-0.28479242 0.31963083 -0.056549847
-0.3939847 0.27303815 -0.02486439
-0.35441267 0.28922537 -0.13801351
-0.1331058 0.37473688 0.14311056
-0.18074077 0.13479286 0.19670042
-0.44586226 0.14007445 0.036209702
-0.38432264 0.113607325 0.15107563
-0.10702889 0.4340404 0.14415297
-0.3302913 0.3854137 -0.015432596
-0.4159232 0.23856358 -0.04081376
-0.26852605 0.3554721 -0.0755755
-0.07168945 0.41455525 0.2353026
-0.2645836 0.37377927 -0.111901626
-0.26235378 0.50238365 0.0033096224
-0.3132463 0.4416414 -0.12183605
-0.16034406 0.33559266 0.13803148
-0.29106554 0.14580022 0.21831769
-0.15894315 0.46266437 0.1574286
-0.2551382 0.26705697 0.07669265
-0.31673944 0.108708955 0.21501113
-0.38229737 0.27257475 0.017662242
-0.33750468 0.37344348 -0.018771544
-0.12579936 0.22088347 0.19924824
-0.31169704 0.43296784 -0.056939214
-0.24649315 0.45921552 -0.14336881
-0.27009588 0.3384832 0.14056945
-0.29580086 0.296316 -0.04650101
-0.27265653 0.19737914 0.099181026
-0.39544988 0.2943987 -0.09694323
-0.27285707 0.37584305 0.115433864
-0.19100021 0.43141842 0.17054161
-0.454866 0.1558447 -0.0045293123
-0.21664335 0.49447855 -0.032718435
-0.31093958 0.28452715 -0.13626532
-0.20347455 0.19751155 0.16042152
-0.3310151 0.34347892 0.04147835
-0.24876788 0.49901432 0.03461787
-0.34671634 0.18663026 -0.13492534
-0.3526771 0.30997792 0.03524378
-0.28585082 0.26152247 0.16927733
-0.4174339 0.15614721 0.074443236
-0.2582608 0.36194903 -0.03913872
-0.20508716 0.28339916 0.120853
-0.35811332 0.18057579 -0.03831561
-0.22833677 0.16792051 0.15501118
-0.18599463 0.42910397 0.17730045
-0.36674517 0.3292982 -0.045441896
-0.2547266 0.24488483 0.09028955
-0.21090864 0.42782122 -0.0035401434
-0.35396433 0.34591484 -0.12638795
-0.3844273 0.1677258 -0.15196663
-0.16499068 0.4397183 0.19360411
-0.19255753 0.1838622 0.17209522
-0.20357324 0.10770537 0.15807115
-0.3190648 0.26068166 0.13403684
-0.19776735 0.48407087 -0.014187649
-0.32533976 0.26391393 -0.11037055
-0.41828784 0.1586624 0.070064835
-0.18762249 0.099086195 0.20102799
-0.14460284 0.16764031 0.20277032
-0.30226803 0.43739212 -0.018896505
-0.1729777 0.33003554 0.12773438
-0.22133844 0.22553404 0.13769679
-0.27296782 0.44535553 0.045143083
-0.28517917 0.47590786 -0.04146865
-0.25743136 0.4825407 0.035438776
-0.23614834 0.26584414 0.21118289
-0.31759003 0.25465035 -0.04005462
-0.14318365 0.38502854 0.12716722
-0.3355466 0.14621189 0.18421578
-0.33288816 0.2410704 -0.15343015
-0.21185203 0.49183676 0.06156469
-0.35815638 0.33479798 -0.015198588
-0.23513702 0.33885667 0.17796531
-0.3216191 0.3806444 0.019796431
-0.34371707 0.21377286 -0.05958666
-0.3168899 0.21212858 0.021756418
-0.2124625 0.49217334 -0.14599764
-0.15972364 0.2501202 0.1697538
-0.21926782 0.45090988 -0.13569345
-0.21065107 0.4911746 -0.09198788
-0.27270117 0.5175119 -0.09841174
-0.33960956 0.23684299 -0.10646337
-0.20738095 0.40813035 0.024568029
-0.20160887 0.4780492 -0.07921362
-0.2947325 0.34088546 -0.14978538
-0.24145891 0.30206236 0.070643134
-0.264817 0.26682153 0.06458365
-0.24518135 0.4539021 0.09023159
-0.27074173 0.28467125 0.17180169
-0.3508936 0.3245853 0.022990331
-0.21795 0.46395868 0.12223654
-0.2786942 0.27180415 0.032097384
-0.32447064 0.2625362 -0.10116984
-0.16566716 0.45825592 0.18187825
-0.34224656 0.23126544 -0.1197069
-0.24438092 0.40954646 -0.106436595
-0.38025305 0.1566962 -0.1462356
-0.3878392 0.29512396 -0.05769658
-0.3930617 0.17844945 0.098039865
-0.3508708 0.3664126 -0.070420876
-0.2042514 0.34541634 0.08495857
-0.3441192 0.14544715 0.17544541
-0.2491009 0.40511942 -0.15363996
-0.087455824 0.42324835 0.22975257
-0.3492125 0.12460619 0.18232985
-0.32808247 0.3511537 0.03893961
-0.28662336 0.32393855 0.13141519
-0.18050069 0.2135697 0.16935931
-0.21972609 0.100746095 0.1839062
-0.24047069 0.36702782 0.0041927397
-0.2962359 0.31088945 0.1288138
-0.14662744 0.45587385 0.15793458
-0.41849 0.14873049 -0.14306526
-0.14408916 0.45447433 0.13778536
-0.41191402 0.26252422 -0.09090038
-0.41929853 0.22215062 -0.00992699
-0.2711837 0.3608116 -0.11659624
-0.2508468 0.33761528 0.16179712
-0.13817213 0.41505334 0.11474616
-0.32805982 0.17716083 0.17390993
-0.38626814 0.14432287 -0.15312587
-0.37230217 0.17671317 -0.1546721
-0.26904994 0.28360656 0.03822715
-0.38491774 0.21944562 0.06978427
-0.15129638 0.39056143 0.11515532
-0.3132245 0.32036445 0.10114598
-0.31577265 0.37306917 0.039381295
-0.38646236 0.2919652 -0.04072365
-0.41006997 0.27107865 -0.11013307
-0.41853756 0.18899162 -0.13467062
-0.2831226 0.44468075 -0.13257083
-0.26333913 0.35053575 -0.032530576
-0.40511727 0.25864208 -0.12524335
-0.33921078 0.1985173 0.14924058
-0.44461298 0.16694248 0.00970383
-0.1948456 0.34369856 0.09609767
-0.16916476 0.399815 0.09043819
-0.22614503 0.4997175 0.023879394
-0.13804592 0.4320955 0.10477133
-0.33794802 0.35977793 -0.12954734
-0.31136188 0.26191425 -0.027954102
-0.18545404 0.31594786 0.12266756
-0.30664584 0.2971704 -0.113421574
-0.28643838 0.20860896 0.077689156
-0.3314674 0.23340108 -0.051817566
-0.34373704 0.38359636 -0.08316301
-0.26312855 0.22593789 0.20803249
-0.23822263 0.27004474 0.093121655
-0.29369256 0.17818773 0.20535101
-0.29023027 0.36369896 -0.14673775
-0.24296397 0.29244918 0.19707692
-0.21225888 0.24151097 0.13798764
-0.2110246 0.30108577 0.103970446
-0.3805354 0.29708844 -0.023838416
-0.4167209 0.25930125 -0.10879542
-0.28223038 0.3351674 0.12947983
-0.14936328 0.31635657 0.1531948
-0.36262763 0.18941715 -0.14268547
-0.19302657 0.48145697 0.0009764135
-0.40221307 0.20594537 0.05053276
-0.22708878 0.42276898 -0.051997185
-0.30071682 0.2891615 -0.051785916
-0.38084146 0.15871511 -0.13171595
-0.36805782 0.28807893 0.028783172
-0.22740433 0.43426263 -0.14458726
-0.1646092 0.36093354 0.2232787
-0.1357076 0.40924436 0.12084485
-0.28203592 0.32397002 0.13633305
-0.17705749 0.31881848 0.12999964
-0.22811288 0.34670246 0.05024027
-0.21397087 0.14521708 0.17202885
-0.2872352 0.49412322 -0.108895615
-0.22850366 0.2813167 0.09689182
-0.059937164 0.40345374 0.1794028
-0.45396364 0.16489172 -0.026768968
-0.20712622 0.10966437 0.17541185
-0.23201866 0.17691788 0.14954138
-0.43700022 0.1898441 -0.0093245655
-0.4271494 0.20304467 0.0046788156
-0.3099184 0.33622515 -0.14502463
-0.26061898 0.29617906 0.17586663
-0.12386548 0.34685782 0.15868954
-0.2868409 0.26291695 0.025753632
-0.3850099 0.14862926 -0.14359756
-0.2744378 0.33081198 -0.033745363
-0.1686666 0.4680256 0.13845712
-0.25816095 0.2639442 0.19763589
-0.3096363 0.2693998 -0.04102704
-0.26187873 0.43814188 -0.14194764
-0.39527798 0.20613985 0.063875094
-0.15998852 0.46324077 0.060868993
-0.2927884 0.43901235 -0.13010283
-0.24704097 0.40096432 -0.13369071
-0.3755636 0.21950474 0.08799921
-0.41080722 0.25343597 -0.057598963
-0.38010246 0.32258773 -0.098005205
-0.22071202 0.3045741 0.09147714
-0.41552147 0.20254774 0.028189138
-0.18364768 0.36841622 0.20861605
-0.37529552 0.30708987 -0.025332361
-0.34487864 0.15899077 0.166593
-0.3520081 0.28310645 0.065502405
-0.1441593 0.38335818 0.22839645
-0.25919113 0.34628835 -0.010042861
-0.17342444 0.43728977 0.18597019
-0.17040934 0.3286932 0.13129486
-0.10254511 0.43156815 0.1687799
-0.3937666 0.28884962 -0.07113089
-0.40063646 0.26889804 -0.048645616
-0.21114528 0.41989052 0.00454174
-0.30069533 0.4562892 -0.06704539
-0.34928465 0.32206655 -0.13311566
-0.2185013 0.4511575 -0.14106914
-0.24637711 0.35267186 0.008119807
-0.2251412 0.1195973 0.16761485
-0.44474748 0.19162312 -0.05683206
-0.26526052 0.37498477 0.12411629
-0.31967726 0.43129507 -0.095353544
-0.10010784 0.34091097 0.17580272
-0.22618103 0.3237693 0.07420397
-0.3789059 0.25000042 0.04861115
-0.22486165 0.3566791 0.17844757
-0.35998282 0.30851874 0.02253981
-0.36418596 0.22257856 0.10691962
-0.41456294 0.242304 -0.1250783
-0.4034241 0.19301814 0.062094316
-0.29930583 0.1808461 0.08031528
-0.18157841 0.4641449 0.16126318
-0.3110486 0.24677591 -0.0041600615
-0.1527855 0.40982866 0.10212162
-0.121405914 0.44196746 0.16250473
-0.12301317 0.2443043 0.1950208
-0.34483594 0.38633814 -0.0973741
-0.28653368 0.24211632 0.048764765
-0.3620836 0.20259807 -0.15314248
-0.33506986 0.26942503 0.111627996
-0.18794727 0.13931294 0.19056188
-0.18204898 0.47540423 0.072352275
-0.26468256 0.2108083 0.21232903
-0.3947754 0.15123276 -0.1514933
-0.24007317 0.33306137 0.17609231
-0.16633858 0.46061653 0.04821936
-0.27408576 0.28906772 0.02250284
-0.37562078 0.31442437 -0.049114093
-0.28853786 0.3221661 -0.15033305
-0.17989781 0.39161932 0.083751604
-0.19650926 0.482834 -0.06581527
-0.23757409 0.39020395 0.14487913
-0.2900076 0.4718618 -0.05560784
-0.269031 0.20910288 0.21017174
-0.39613593 0.23776577 -0.13297595
-0.21753441 0.39600745 0.017789714
-0.21363652 0.38654113 0.035604805
0.311607 0.18006143 -0.38965777
0.3105892 0.08903341 -0.34165853
0.3257166 -0.040972028 -0.15249288
0.293774 -0.23394084 -0.23342668
0.3885998 0.037380725 -0.34854156
0.33583865 0.056711912 -0.2836276
0.35351974 0.030759376 -0.21643607
0.3682659 0.11657256 -0.41828457
0.36559144 0.14257103 -0.43658713
0.2205606 -0.13754927 -0.29958767
0.2833978 -0.14920324 -0.35192257
0.29515046 0.06972255 -0.42879474
0.40734458 0.1031498 -0.36827034
0.44753668 0.04784991 -0.24217959
0.27018416 -0.28935716 -0.19551547
0.36922175 0.10563667 -0.27110654
0.34536925 -0.062984854 -0.32488298
0.41907606 0.14396149 -0.29705215
0.3221591 0.1863816 -0.4147145
0.38902876 0.0872831 -0.19279443
0.30853096 -0.06753398 -0.07513013
0.29700243 -0.010676514 -0.2869106
0.33602244 -0.16514459 -0.20993435
0.42490542 0.12062922 -0.35974506
0.20760746 0.017833047 -0.4065566
0.45892286 0.0471337 -0.06245336
0.45460328 0.056761444 -0.008698732
0.43938664 0.13276283 -0.10238521
0.2866058 -0.267409 -0.07194509
0.27408507 -0.26848397 -0.23692712
0.31726897 0.10955307 -0.3466447
0.24721894 -0.11226036 -0.2747429
0.14590399 -0.15707776 -0.41966465
0.35409212 0.02605447 -0.19919918
0.31520504 0.096271366 -0.34098554
0.32205293 0.14352961 -0.36165506
0.3420149 -0.026354313 -0.36173332
0.4360457 0.13460492 -0.08808854
0.39755237 -0.07326307 -0.15077291
0.44118345 0.044606313 -0.25357628
0.2070511 -0.11870091 -0.29858536
0.44166237 0.080108576 -0.2908901
0.40682068 0.12526357 -0.20993745
0.23821814 -0.05678501 -0.43363246
0.16416888 -0.10192239 -0.38456887
0.21747835 -0.08037807 -0.43071508
0.2025161 -0.1736086 -0.42447433
0.2591577 -0.30813888 -0.029361397
0.37164193 -0.10856224 -0.050214402
0.40732127 -0.028195497 -0.0076892525
0.4317328 0.008551167 -0.01722753
0.39456072 0.08524755 -0.15657459
0.3655314 0.039592016 -0.17756271
0.39455584 -0.04046278 0.0061023086
0.1677576 -0.22473697 -0.43154088
0.16184983 -0.14786299 -0.36115712
0.37938562 0.14478454 -0.29342347
0.44183558 0.13141257 -0.090198055
0.14429744 -0.11837855 -0.4110067
0.2352245 -0.13240308 -0.41372555
0.37146232 -0.10403013 -0.027359195
0.36834967 0.0998328 -0.40826285
0.36423185 0.069270924 -0.0020521283
0.45489815 0.02942735 -0.11141276
0.29632914 -0.021030512 -0.27707022
0.32567275 -0.02741643 -0.19341335
0.28742516 -0.13782132 -0.35434163
0.26941475 -0.21647927 -0.30792493
0.343942 -0.047876604 -0.34394914
0.36631876 -0.008653767 -0.34248298
0.33800063 -0.0041977074 -0.19599493
0.26257506 -0.11229439 -0.24469939
0.399849 -0.06951484 -0.14952081
0.4623006 0.08192314 0.005494222
0.29573292 0.09433107 -0.42389452
0.3615368 0.026896533 -0.37232098
0.36600575 -0.043596357 -0.30544692
0.34738532 0.0056207795 -0.06249385
0.29014182 -0.09928176 -0.1711355
0.3050569 -0.05991933 -0.029759064
0.2663288 -0.28633773 -0.010768294
0.3461568 -0.09522995 -0.28860268
0.19203115 -0.1167423 -0.34714544
0.3785784 -0.09862236 -0.0626327
0.21092337 -0.15920417 -0.42397356
0.3705496 0.17071754 -0.33856273
0.48393485 0.10820025 -0.13380387
0.41753718 0.12516333 -0.3703634
0.31525907 -0.20930125 -0.1904291
0.34735075 -0.08464989 -0.29766867
0.30618444 -0.21031804 -0.0060357302
0.2714321 -0.29471537 -0.070941605
0.43420598 0.117256455 -0.34548354
0.37730694 -0.108473 -0.098124966
0.48413056 0.09408873 -0.18177061
0.3228112 -0.19007292 -0.20702983
0.42299303 0.14138362 -0.17028913
0.31988293 -0.20221256 -0.1865351
0.23781218 -0.111565545 -0.29387182
0.34639564 0.08255643 -0.421636
0.31400263 -0.0051410384 -0.40446174
0.22782351 -0.054729 -0.4292823
0.38669944 -0.09187398 -0.10017675
0.23742765 -0.01458782 -0.3589039
0.34870142 0.100303136 -0.42968386
0.4545732 0.12438941 -0.032800928
0.36599055 -0.088040665 -0.2575927
0.35970774 0.111236334 -0.42432708
0.35309297 0.04880268 -0.24138892
0.19030276 -0.109466374 -0.2656778
0.3170442 0.17418562 -0.41532183
0.3986475 -0.05012333 -0.21425657
0.25818813 -0.03218122 -0.43604904
0.20349644 -0.1874011 -0.41523582
0.32951683 -0.036734182 -0.109287135
0.21626782 -0.16314644 -0.28039744
0.29992977 0.1184814 -0.37059912
0.3676466 0.028494487 -0.13274524
0.270666 0.040918738 -0.42554846
0.3649644 0.039944287 -0.18170586
0.3974614 0.11671154 -0.018305197
0.38532725 0.112604946 -0.3975715
0.1986322 -0.13005769 -0.4339398
0.33769676 -0.16506267 -0.20106545
0.29455775 -0.09608305 -0.09021364
0.40214026 -0.06701064 -0.14456485
0.4378541 -0.004615141 -0.12613384
0.33011305 0.1531806 -0.35870773
0.24413987 -0.15016004 -0.23992553
0.3209753 -0.19333793 -0.018510617
0.41787887 -0.01454558 -0.014655843
0.42737272 -0.023283329 -0.12452519
0.35316184 -0.12363255 -0.24122554
0.46546608 0.11838338 -0.17033678
0.19224675 -0.13984974 -0.43356758
0.2123011 -0.12159561 -0.30155838
0.23764864 -0.17027465 -0.38864878
0.31822658 0.043558523 -0.30387062
0.25080454 -0.010322619 -0.3470412
0.1922992 -0.060468614 -0.4170714
0.40656194 -0.04072273 -0.19939056
0.3658781 -0.034193903 -0.31582612
0.42109305 0.12560578 -0.12691882
0.41816697 0.0073357075 -0.25839525
0.30304077 -0.030517688 -0.25373423
0.30839133 -0.23654519 -0.11262436
0.19713852 -0.14251342 -0.32635957
0.36065337 0.13071828 -0.31251898
0.35481784 0.04265199 -0.3888986
0.3521476 0.005866761 -0.10196523
0.42559165 0.06390791 -0.3048386
0.34489912 0.10359876 -0.43573034
0.40032992 0.12671606 -0.23302954
0.35567373 0.03738559 -0.022786155
0.36147347 0.021331424 -0.10878271
0.2223187 -0.035975892 -0.3624726
0.4283495 0.058283623 -0.29339007
0.2520865 -0.13403673 -0.24176848
0.40226048 0.111295484 -0.19283637
0.27910852 -0.13037494 -0.36770856
0.34523585 -0.15656537 -0.05073666
0.41462022 -0.011875654 -0.003783837
0.37995774 0.065115124 -0.17564057
0.28939575 -0.08533968 -0.383358
0.38294047 -0.06801951 -0.24604006
0.14159262 -0.13561417 -0.38710105
0.33743978 -0.016673092 -0.08251412
0.38396978 -0.08406648 -0.19228142
0.36343426 -0.12797707 -0.17227603
0.4125381 -0.029030355 -0.20195132
0.26503864 -0.15721856 -0.36692172
0.35931444 -0.12728661 -0.19677056
0.29458347 -0.1202815 -0.3570453
0.42323816 -0.012168307 -0.036966056
0.3361486 0.13505596 -0.34146014
0.36572444 0.13357422 -0.4311058
0.48420927 0.10804893 -0.1161059
0.34681296 -0.15118513 -0.03888031
0.42113146 0.1313602 -0.15034106
0.2783519 -0.18109965 -0.32858044
0.3144006 0.026953977 -0.42307487
0.2503989 0.026950542 -0.36959082
0.35477364 0.010178778 -0.10408656
0.3231693 -0.0052237995 -0.39454907
0.44093877 0.13190702 -0.06575636
0.33268845 -0.014711365 -0.19335869
0.40674013 0.10161914 -0.117301606
0.28522503 -0.2558459 -0.015556976
0.37322766 0.023317527 -0.3576172
0.40483376 -0.052166358 -0.17445485
0.3953411 -0.06626474 -0.053432748
0.2367119 -0.02056124 -0.4255274
0.27074307 -0.26337457 0.008183688
0.35721567 -0.10650938 0.008225128
0.38079745 0.03473252 -0.35624442
0.38923806 0.07025066 -0.14054003
0.26784024 -0.13547477 -0.18390118
0.2869454 -0.04706142 -0.4087052
0.39943555 0.15479067 -0.336199
0.2884974 0.10491954 -0.41896117
0.38666517 0.14841044 -0.4173752
0.39034784 -0.061278038 -0.010602221
0.46929356 0.05590291 -0.109680206
0.3324642 -0.023556255 -0.07244365
0.25815538 -0.28222194 0.013230264
0.38738507 -0.08301902 -0.06436631
0.32151404 0.021873044 -0.27408206
0.210197 -0.19440807 -0.40386885
0.40869814 0.14968355 -0.24725646
0.3115205 -0.20766082 -0.014931038
0.33311564 -0.15151024 -0.25344837
0.4647613 0.060788535 -0.048029102
0.45056573 0.034744643 -0.04942803
0.272421 0.047572248 -0.35812998
0.3414875 0.0063527497 -0.20867781
0.2354238 0.054196067 -0.3939523
0.357409 0.10231355 -0.29060912
0.21085395 0.01008492 -0.40939373
0.2427849 -0.17266592 -0.20866399
0.35788983 0.026624553 -0.3760833
0.28694665 -0.09035395 -0.21531732
0.354202 -0.1452145 -0.17079347
0.3737401 0.056599155 -0.04753641
0.29765552 0.053633306 -0.33457235
0.29423466 -0.09443246 -0.07969389
0.27902353 -0.097160205 -0.22886369
0.4049013 -0.022860674 -0.25178337
0.31520486 0.054080408 -0.4383039
0.31140378 -0.22254635 -0.072475374
0.33819866 0.14802279 -0.42874786
0.27544886 -0.070106484 -0.40740323
0.34254518 -0.12518136 -0.26338977
0.43888494 0.13303944 -0.17655215
0.44276294 0.031379193 -0.2187362
0.30511194 -0.082180455 -0.11485973
0.3960789 0.09295954 -0.06708212
0.37499568 0.16826609 -0.34885687
0.33470932 0.09021136 -0.31640297
0.28226107 0.081611544 -0.42145735
0.40856943 0.07217018 -0.34700274
0.24423994 -0.17610358 -0.3780979
0.4577907 0.06372248 -0.23400229
0.37519053 0.13365439 -0.28963006
0.21274582 -0.20347148 -0.39574856
0.34235966 0.03708624 -0.249739
0.27166706 -0.13824002 -0.15477286
0.22481571 -0.009433694 -0.41872323
0.3917944 0.0901646 -0.043674007
0.34902793 -0.04781728 -0.33407438
0.32268345 -0.13653275 -0.28997123
0.18138379 -0.10454871 -0.30748188
0.4422012 0.002451228 -0.13497587
0.30080444 -0.25148392 -0.118171096
0.31092185 -0.04737986 -0.027348712
0.4472447 0.12843011 -0.23773187
0.43522626 0.13505673 -0.1648486
0.30575398 -0.23750842 -0.09465721
0.4401074 0.13236539 -0.31208807
0.3104418 0.023969892 -0.4255644
0.40349886 0.15255028 -0.32496524
0.28957286 -0.070798315 -0.2366524
0.35509083 -0.15350953 -0.12044244
0.37146512 0.100566626 -0.40534532
0.36579067 -0.11916125 -0.18590835
0.41249394 0.05811335 -0.32418936
0.21803805 -0.17051312 -0.26900202
0.30443007 -0.058168247 -0.21674663
0.3153246 0.06469181 -0.43745413
0.40488368 0.08409816 -0.35961527
0.34194383 0.02492518 -0.0070218146
0.4811677 0.10972598 -0.033151723
0.38198742 0.1544087 -0.4259671
0.26080346 -0.032719273 -0.32299405
0.4729594 0.06695396 -0.16113743
0.21790846 0.023992367 -0.40916216
0.21686305 -0.056403235 -0.42549473
0.38154867 0.16465297 -0.37697178
0.2999427 -0.03839099 -0.39986318
0.29813787 -0.2513474 -0.1574349
0.44699612 0.015648322 -0.14848322
0.28361487 0.099803925 -0.41818312
0.28360426 -0.27031624 -0.060012296
0.37462065 -0.10559459 -0.061667316
0.3502947 0.10449314 -0.3068593
0.3451892 -0.17338224 -0.12944813
0.29846087 -0.25714812 -0.12482418
0.3554358 0.009805506 -0.14312081
0.13003428 -0.1708024 -0.41653177
0.18824783 -0.19430208 -0.42754984
0.32964492 -0.18316686 -0.042853825
0.3427188 -0.01006521 -0.09646619
0.40987226 0.14903618 -0.2631569
0.42563307 -0.022350103 -0.10529687
0.3525098 -0.00746195 -0.36165005
0.34161386 -0.018637013 -0.12736651
0.27246356 -0.13198657 -0.16920447
0.33901352 -0.17123161 -0.17538323
0.38627225 -0.09406883 -0.10685916
0.39331204 -0.03852317 -0.2575556
0.2683784 -0.2819033 -0.227712
0.29747194 0.03464608 -0.43696874
0.38079095 0.15873414 -0.42982078
0.3269584 -0.015753359 -0.024129085
0.3964135 -0.056031056 -0.20868711
0.36344498 0.037029557 -0.051757462
0.39083064 0.11384367 -0.23772311
0.46411029 0.06874747 -0.0153583735
0.38092047 0.055408716 -0.14126928
0.3216605 -0.20441295 -0.07468062
0.29310954 0.08465735 -0.3578703
0.26400846 -0.18916179 -0.3479219
0.43713883 0.00977733 -0.05232638
0.3154209 -0.22188266 -0.1036248
0.4835706 0.10840108 -0.08578347
0.39644152 0.08975596 -0.08524485
0.26184547 -0.067200944 -0.29470843
0.4179357 -0.036162026 -0.10459685
0.29509455 -0.07658136 -0.38242224
0.32702482 -0.19717908 -0.086416505
0.34136143 -0.1585964 -0.02723182
0.30053252 0.14750975 -0.38530684
0.32062912 -0.110531844 -0.32199854
0.42919222 -0.01826011 -0.11642255
0.4408569 0.00954275 -0.16357724
0.2888243 -0.11495577 -0.13007887
0.17547669 -0.077786624 -0.41432664
0.27884826 -0.16450207 -0.3454923
0.40233782 -0.048980206 -0.19760041
0.3379394 0.15010759 -0.34846318
0.34868076 -0.0929463 -0.28613052
0.28277093 0.03341563 -0.43167734
0.3064452 -0.2349638 -0.08858154
0.28444025 -0.008525446 -0.43426338
0.13015042 -0.18543436 -0.41961992
0.41205654 -0.035977356 -0.053568363
0.3372456 0.16201818 -0.3562761
0.46414536 0.04791987 -0.15198961
0.46690717 0.0550951 -0.09312211
0.2710046 -0.11874603 -0.2168813
0.29988876 -0.2386522 -0.049996965
0.3951736 0.14846376 -0.40825108
0.3101467 -0.23151736 -0.15158199
0.19942075 -0.10371044 -0.34692538
0.2785748 -0.1114978 -0.19743043
0.31988457 -0.19107142 -0.21996129
0.09316389 -0.16681416 -0.401789
0.14858939 -0.22328229 -0.4344524
0.3695574 0.041415095 -0.16112107
0.19369902 -0.0076414943 -0.40660846
0.3532687 0.1024345 -0.29882914
0.40623513 -0.045625348 -0.04928547
0.29145646 -0.10736472 -0.13972044
0.26771122 -0.3058078 -0.09137437
0.28752193 -0.25982562 -0.1897729
0.34241977 -0.015673937 -0.12030038
0.42993626 0.07142937 -0.30445245
0.23048316 0.0008690059 -0.41871822
0.47197157 0.07183189 -0.1811558
0.26547334 -0.2985557 -0.03816457
0.2904246 -0.27244103 -0.12820056
0.34322226 -0.17764905 -0.13273925
0.29674855 -0.027476106 -0.4097759
0.26478672 -0.28417355 -0.00448218
0.3472892 0.0065196333 -0.057447296
0.16791706 -0.17935276 -0.43260577
0.22767381 -0.13141157 -0.42243862
0.38043284 0.097172424 -0.39368215
0.3630731 -0.13875124 -0.11911999
0.35297066 0.0039657834 -0.117933415
0.39861292 -0.07461445 -0.12062978
0.45619118 0.12349728 -0.09887841
0.33121577 -0.11769111 -0.2935988
0.35287982 -0.08187906 -0.28984994
0.36141977 0.117813796 -0.29947132
0.33146274 0.18750444 -0.41799158
0.46098465 0.092539065 -0.2665264
0.19315054 -0.10237545 -0.35446435
