0.2516303 -0.1985403 0.14928943
0.17320518 -0.46693042 0.15419924
0.28200853 -0.22924921 0.12835574
0.20544082 -0.5379979 0.17687964
0.2813578 -0.21017958 0.14177288
0.18361318 -0.46191072 0.17659974
0.1541864 -0.58506215 0.15151769
0.14743574 -0.63015074 0.15388688
0.20381033 -0.40085518 0.12626189
0.13434975 -0.66564125 0.16149746
0.3023764 -0.13596821 0.12703265
0.17476465 -0.6803784 0.18107638
0.21594667 -0.31623995 0.12216436
0.25345242 -0.15326259 0.104563266
0.1295703 -0.6659625 0.19418243
0.21521953 -0.29362607 0.13033265
0.17919028 -0.5282513 0.18941599
0.22633533 -0.2893081 0.11547745
0.24903649 -0.3472297 0.12730047
0.15509358 -0.63770443 0.20232333
0.14504652 -0.61125815 0.19088474
0.18747433 -0.57713175 0.14789605
0.25374973 -0.2024552 0.1018309
0.25872558 -0.2096245 0.10120133
0.23360173 -0.4112434 0.16510084
0.27886778 -0.21189779 0.14452885
0.17828569 -0.4726834 0.1407794
0.14332862 -0.59139764 0.17334381
0.24924254 -0.25825864 0.15833764
0.19343847 -0.42141736 0.17201617
0.1839818 -0.43256038 0.16497833
0.16982295 -0.4939882 0.17297685
0.28574714 -0.17529325 0.14189675
0.26225927 -0.12122785 0.1347061
0.23688845 -0.22829072 0.14723714
0.18565744 -0.41625303 0.15697889
0.19316313 -0.3986473 0.1632071
0.15232942 -0.5539914 0.16724184
0.17813754 -0.48209307 0.17845127
0.27505243 -0.13566634 0.092843644
0.16541421 -0.4998427 0.15752256
0.24227041 -0.1765769 0.11961166
0.18561788 -0.4217621 0.1427106
0.18483433 -0.4648446 0.1356901
0.20274536 -0.56157535 0.17135565
0.24006596 -0.35375592 0.121610425
0.22928841 -0.31905675 0.11465701
0.18470895 -0.4568708 0.13656431
0.23086485 -0.4266049 0.13737908
0.27755418 -0.18681037 0.1469497
0.25983682 -0.12690495 0.13420612
0.15035959 -0.56215596 0.16865456
0.2663903 -0.13119504 0.09568521
0.2093483 -0.5274199 0.17250532
0.26313746 -0.1854412 0.14975458
0.21454662 -0.35276592 0.121027336
0.2287015 -0.43632758 0.13879552
0.15294743 -0.5558836 0.17551064
0.15745127 -0.53316027 0.16209549
0.23514986 -0.28568467 0.11124212
0.23295066 -0.36010826 0.16877232
0.18479106 -0.634059 0.18257755
0.14036337 -0.6055068 0.17749336
0.18533301 -0.47669455 0.13531199
0.1568798 -0.5343789 0.16672799
0.2666731 -0.28200525 0.12335705
0.17775156 -0.6336251 0.15712726
0.2000755 -0.40019196 0.12828505
0.20755897 -0.33051777 0.13135397
0.18795049 -0.5041649 0.18683428
0.19776523 -0.4822959 0.13303791
0.23382914 -0.43228552 0.15069368
0.22931682 -0.2763983 0.15603149
0.14123428 -0.61906075 0.18967617
0.26216784 -0.19457 0.15085682
0.20999709 -0.33075196 0.15640707
0.27691382 -0.14534244 0.09382607
0.28699055 -0.14325118 0.09545088
0.27174744 -0.12347787 0.092977785
0.29260126 -0.13584478 0.0967334
0.21816348 -0.28157574 0.14369512
0.21424177 -0.4017551 0.17499276
0.17573288 -0.6261947 0.19669634
0.19090421 -0.39548346 0.15605262
0.2903614 -0.19152564 0.11895289
0.18934415 -0.5369204 0.13999435
0.27326667 -0.23335126 0.110990435
0.2462579 -0.1598503 0.11748538
0.23009738 -0.44729108 0.15507594
0.2040149 -0.41239098 0.17512517
0.17273769 -0.53304297 0.14145434
0.21480426 -0.43957192 0.17771275
0.28310713 -0.22261122 0.133201
0.17423153 -0.6540431 0.19553322
0.25886264 -0.1402306 0.13812724
0.17093012 -0.5317702 0.18716408
0.21645713 -0.28590488 0.14094749
0.20376036 -0.51678085 0.18233451
0.23484308 -0.20644143 0.12833303
0.18842223 -0.40189517 0.15048027
0.14482072 -0.67757154 0.20693156
0.19826704 -0.44585985 0.179683
0.20101368 -0.39788187 0.17051283
0.15285261 -0.5706063 0.18415152
0.27775744 -0.23344658 0.11682264
0.19393468 -0.43305477 0.13114826
0.19554761 -0.592304 0.16769174
0.17477597 -0.5941227 0.14635202
0.15499735 -0.61092204 0.15011333
0.23691079 -0.34712946 0.11866748
0.18198454 -0.43730596 0.144339
0.22136179 -0.337985 0.1663711
0.20756674 -0.5387125 0.15801366
0.26995045 -0.27835253 0.13941196
0.18165499 -0.57673424 0.19391689
0.27171478 -0.109632686 0.1383578
0.18072033 -0.50563043 0.18562444
0.27947912 -0.23947604 0.13111511
0.15242752 -0.57192135 0.15552202
0.19000381 -0.54430485 0.1898428
0.19879538 -0.4777174 0.18384269
0.27228257 -0.14249957 0.14472497
0.12903449 -0.652058 0.18163845
0.23642857 -0.41974607 0.14698559
0.23004457 -0.33920032 0.16775095
0.14265035 -0.6714485 0.2053107
0.24132213 -0.34054452 0.16466668
0.1828027 -0.6216954 0.19074078
0.21836898 -0.43624276 0.1759009
0.25817806 -0.20575085 0.15211162
0.22924584 -0.26125693 0.15127972
0.24869832 -0.24777658 0.15701556
0.1919983 -0.5399469 0.14136486
0.29136774 -0.1809376 0.11290769
0.2952872 -0.15251118 0.10462534
0.19106999 -0.6015696 0.18305375
0.26095468 -0.31745327 0.14003041
0.29268518 -0.15660958 0.10334142
0.19443181 -0.52674395 0.13961676
0.1808722 -0.64736784 0.18635231
0.21137236 -0.38814777 0.17278771
0.27650464 -0.22412214 0.14546701
0.23966184 -0.33029777 0.16538961
0.25532725 -0.16915718 0.10114783
0.22566585 -0.40214399 0.12561691
0.14719075 -0.6079604 0.15556481
0.24225816 -0.2921274 0.11090159
0.15854923 -0.66503024 0.15478605
0.22879508 -0.45206112 0.1583147
0.21184707 -0.5084329 0.17437677
0.16424723 -0.6864103 0.16231227
0.20394118 -0.44179562 0.12821116
0.2022722 -0.47529683 0.18290833
0.24816965 -0.35260558 0.15733352
0.27816057 -0.15562148 0.095147125
0.26925856 -0.17358391 0.09707752
0.27168936 -0.20336734 0.14986601
0.2801647 -0.1509046 0.09482928
0.17504327 -0.6603499 0.19308656
0.23854679 -0.38389692 0.16402872
0.2314835 -0.24746832 0.14855143
0.19716507 -0.53332424 0.14235328
0.25618902 -0.12479515 0.10822479
0.15020007 -0.63611066 0.20094523
0.2509961 -0.14605324 0.11110771
0.26733005 -0.13592006 0.09517467
0.1700628 -0.6419875 0.15419519
0.23187453 -0.23577373 0.14426634
0.17320558 -0.4787198 0.17072329
0.22338898 -0.46944737 0.14761138
0.23711376 -0.24741678 0.110048
0.29239035 -0.18522863 0.124535546
0.21216306 -0.34237665 0.12303793
0.23708312 -0.27890602 0.11038181
0.21714233 -0.5020984 0.16030219
0.23379394 -0.40161934 0.16657038
0.23347053 -0.31578973 0.11354479
0.25465062 -0.24643064 0.10564045
0.26188704 -0.28142202 0.1530194
0.2621926 -0.31111225 0.13408166
0.13552848 -0.65903485 0.19842839
0.20299926 -0.53189194 0.18156697
0.28325662 -0.18916222 0.10529754
0.18356949 -0.48804212 0.13615236
0.2451317 -0.36351585 0.15927163
0.24855193 -0.3671627 0.13907203
0.13713981 -0.6448642 0.19488089
0.2694525 -0.15046686 0.145619
0.23236835 -0.40663517 0.13145258
0.1575256 -0.64798117 0.15227348
0.2487656 -0.15538695 0.1306208
0.26801163 -0.21053785 0.151491
0.19323009 -0.5709236 0.1865442
0.14933017 -0.57978165 0.1582849
0.18230353 -0.43162966 0.16021055
0.19025192 -0.55785567 0.14453205
0.16120845 -0.526566 0.15342137
0.17185083 -0.4936261 0.145195
0.2877547 -0.16065943 0.14150652
0.12561363 -0.6765056 0.17072403
0.20189925 -0.47190776 0.13188615
0.21788007 -0.49146336 0.16836736
0.15767975 -0.5621503 0.1862148
0.26787868 -0.2614112 0.11563984
0.13288613 -0.6374561 0.18176949
0.2180534 -0.3266753 0.16230513
0.26549095 -0.225716 0.15292075
0.292369 -0.18547218 0.12097534
0.19951922 -0.38418302 0.13031268
0.2346035 -0.33940035 0.16709924
0.189446 -0.61651665 0.17910537
0.20061532 -0.5455787 0.14898367
0.18659364 -0.5226463 0.13767608
0.18204427 -0.6278738 0.15962243
0.17265345 -0.6123811 0.14914486
0.13437128 -0.6525495 0.16323145
0.2203731 -0.27392834 0.12665236
0.21650553 -0.2850416 0.13197479
0.22622138 -0.30856237 0.11528725
0.24581288 -0.34123918 0.1218801
0.19825841 -0.48303133 0.184297
0.26421186 -0.16122007 0.09688806
0.22864573 -0.39682177 0.17085099
0.19804919 -0.55492455 0.14969763
0.21584618 -0.5003349 0.16917914
0.1921145 -0.5974288 0.1823959
0.22126502 -0.2933499 0.119612165
0.17635664 -0.6678322 0.17091471
0.28900343 -0.19978681 0.12505314
0.28315642 -0.20721903 0.1397827
0.19961895 -0.35615656 0.13998175
0.15518574 -0.5464702 0.1595426
0.19720012 -0.54131407 0.1444856
0.2830065 -0.12823687 0.14294839
0.15152262 -0.57673293 0.1557231
0.15881658 -0.6358828 0.20222406
0.18540655 -0.56234586 0.14358672
0.1892819 -0.6137504 0.18120639
0.17316878 -0.6860251 0.1857773
0.15832746 -0.65189844 0.2038855
0.19644892 -0.58792406 0.17495659
0.1474267 -0.6509856 0.1539201
0.13408864 -0.65254384 0.19444737
0.22787486 -0.24597865 0.1208706
0.23372021 -0.21295884 0.13210532
0.15137118 -0.66222143 0.2052459
0.15078008 -0.6792792 0.15593675
0.16787846 -0.52519125 0.14503618
0.16887186 -0.68191105 0.19716719
0.19691828 -0.5704862 0.15459901
0.29673767 -0.15649308 0.13159132
0.16413137 -0.62008893 0.14902991
0.17409787 -0.4654623 0.16335562
0.18637589 -0.624458 0.18351637
0.218092 -0.4892659 0.1487785
0.29315397 -0.17098022 0.11062441
0.2561201 -0.3380003 0.14163083
0.24661216 -0.37843922 0.14468434
0.23096791 -0.22877076 0.13846472
0.2014391 -0.504544 0.18419993
0.24221563 -0.25229523 0.107555956
0.26362887 -0.29002184 0.14917961
0.2729147 -0.25846618 0.14229415
0.16903263 -0.6700801 0.19863555
0.12950842 -0.6536509 0.18591486
0.24603313 -0.3052331 0.16238257
0.22957437 -0.23169765 0.13576013
0.22800992 -0.2716619 0.115672745
0.18526167 -0.49337536 0.13550979
0.29625475 -0.16876237 0.123400785
0.27092782 -0.119423196 0.09342258
0.25714543 -0.33406597 0.13973802
0.26244128 -0.22416852 0.15359978
0.21347547 -0.43073827 0.1273144
0.26561195 -0.1547665 0.096166894
0.21929896 -0.42252302 0.12752694
-0.4225044 -0.3184372 0.35263035
-0.30558556 -0.10705168 0.30280566
-0.38738093 -0.26109102 0.3376636
-0.38460752 -0.29866165 0.38078296
-0.25270787 -0.03831488 0.28088987
-0.3842052 -0.23013832 0.38030174
-0.22872049 -0.023282941 0.27552253
-0.47994077 -0.3575854 0.38917845
-0.35084435 -0.1617385 0.3271864
-0.29883438 -0.08719736 0.30226618
-0.29076564 -0.15165778 0.34211707
-0.26372057 -0.071005285 0.287929
-0.48322314 -0.37724653 0.37763786
-0.3146184 -0.18514429 0.35535848
-0.2538846 -0.058139518 0.3360349
-0.32921153 -0.21589084 0.34874624
-0.25577044 -0.006877413 0.30771133
-0.20011501 0.07710403 0.29002538
-0.33002278 -0.16460907 0.31311905
-0.3549719 -0.16903432 0.35743824
-0.18329152 0.018306214 0.27585542
-0.3215865 -0.111246035 0.33668524
-0.45544913 -0.39327094 0.3750384
-0.23507838 0.00872685 0.27511698
-0.39859876 -0.2439353 0.38097107
-0.2964719 -0.09477277 0.29896605
-0.43793827 -0.34659505 0.4114712
-0.32737136 -0.1266468 0.34691417
-0.24148697 0.016357668 0.2985488
-0.38413316 -0.22239085 0.37572122
-0.343852 -0.15692596 0.32093734
-0.3015429 -0.09607779 0.3437736
-0.30736354 -0.17779344 0.32895374
-0.4214843 -0.27110547 0.38231876
-0.37017453 -0.2705712 0.37907335
-0.15275367 0.061375126 0.27883
-0.27690634 -0.13392913 0.3270089
-0.4455681 -0.3949799 0.3862723
-0.14814584 0.09651991 0.29288834
-0.35067606 -0.16005212 0.35327634
-0.2901072 -0.14664584 0.34534326
-0.29333025 -0.117897786 0.30018264
-0.2687124 -0.044221222 0.28885525
-0.23580387 -0.046743426 0.32842007
-0.41258672 -0.34290105 0.37222892
-0.26808774 -0.11891022 0.32874757
-0.3040541 -0.086019166 0.33281687
-0.39533108 -0.25192118 0.3868026
-0.3100331 -0.17964391 0.32662877
-0.42103383 -0.35973513 0.38708025
-0.40864462 -0.2718234 0.39186525
-0.24323109 -0.039814077 0.3314961
-0.4473285 -0.31494945 0.39625412
-0.40033606 -0.29703304 0.39637667
-0.21306859 0.052009292 0.30058107
-0.37654623 -0.28544047 0.3781715
-0.35304236 -0.18556477 0.32205147
-0.30791068 -0.13173649 0.3564699
-0.33870244 -0.2296305 0.3577913
-0.3343297 -0.13402559 0.3217029
-0.24325766 -0.057767022 0.33161744
-0.39431712 -0.30485633 0.35477144
-0.16222325 0.090223044 0.24764796
-0.206703 0.015634445 0.2652495
-0.43921685 -0.2930508 0.3769307
-0.17383827 0.060856193 0.30365866
-0.33726883 -0.1646615 0.31538868
-0.32091177 -0.112187415 0.3171553
-0.30655882 -0.15969506 0.31394994
-0.30989364 -0.15967666 0.3590689
-0.46625683 -0.38744897 0.37066686
-0.47243774 -0.34653312 0.39602625
-0.47436622 -0.3618209 0.41128525
-0.44380027 -0.30749965 0.39311525
-0.3146118 -0.14665805 0.30775127
-0.16712189 0.03917133 0.27783066
-0.16579798 0.053012684 0.26152867
-0.3637949 -0.20059879 0.37311783
-0.16787365 0.04101874 0.27167916
-0.38206846 -0.2035123 0.35383055
-0.36595994 -0.25943965 0.34230983
-0.18901783 0.050636873 0.25617826
-0.24312583 -0.013188481 0.27698958
-0.4252436 -0.33457115 0.40666583
-0.31432238 -0.117046185 0.30723035
-0.48037067 -0.35926086 0.40032393
-0.1503438 0.06817998 0.26497662
-0.25418565 -0.047683027 0.3344946
-0.15370306 0.096562564 0.29521722
-0.24194509 -0.07813262 0.3170397
-0.23969956 -0.03275491 0.3298877
-0.29619431 -0.10587255 0.34979087
-0.21330383 -0.029289376 0.28893417
-0.3360171 -0.1377029 0.3215412
-0.23921922 0.010441259 0.27983457
-0.14905567 0.06778501 0.2693071
-0.40394813 -0.33142257 0.3857996
-0.14869289 0.079408094 0.25489497
-0.18727462 0.01555101 0.3036994
-0.4488467 -0.3847048 0.41479796
-0.14977896 0.06758481 0.2820937
-0.23835549 -0.068571866 0.32170072
-0.165968 0.041883588 0.28835472
-0.3628455 -0.2644224 0.37199414
-0.4697078 -0.38021648 0.37002125
-0.4236288 -0.26967192 0.37475857
-0.38488147 -0.24320683 0.3856256
-0.28824848 -0.057177693 0.3096453
-0.1596294 0.072006404 0.29701445
-0.3408093 -0.19366904 0.31997657
-0.3720731 -0.2599631 0.3844058
-0.33615762 -0.14587498 0.31753063
-0.24532083 -0.049133636 0.2822543
-0.39137533 -0.21874754 0.3601769
-0.34528974 -0.15491785 0.3238647
-0.32918528 -0.20276524 0.36421773
-0.2541583 -0.019559814 0.28334618
-0.28140724 -0.106309846 0.34783652
-0.4289126 -0.30227885 0.3532721
-0.3716199 -0.280947 0.3593698
-0.2577983 -0.01614988 0.31716335
-0.24978697 -0.02640391 0.2795781
-0.24587288 0.0049801245 0.3093203
-0.24437617 -0.08177085 0.30867052
-0.39656287 -0.30373272 0.39310986
-0.21790354 0.004880907 0.2681355
-0.15262698 0.06753738 0.2616113
-0.38049468 -0.20139919 0.34945416
-0.16772783 0.046228707 0.29569912
-0.42608508 -0.2942994 0.35255563
-0.17622006 0.10505992 0.25199094
-0.33655348 -0.2188808 0.36471787
-0.4801014 -0.3616239 0.4042919
-0.27045137 -0.123552315 0.3228848
-0.36723363 -0.27531737 0.36523867
-0.29926205 -0.08277258 0.30497363
-0.26891822 -0.02981505 0.29683992
-0.44452715 -0.30416095 0.3872565
-0.20292337 -0.017028846 0.30063516
-0.4028406 -0.33079678 0.37568372
-0.26606685 -0.06425922 0.2868935
-0.40080163 -0.24240538 0.3775504
-0.32673946 -0.13353994 0.31306314
-0.29688853 -0.07082528 0.31274444
-0.17533788 0.07499455 0.25001752
-0.19855696 0.036675856 0.2598393
-0.20523126 0.04962849 0.30746776
-0.30657402 -0.090016864 0.3109005
-0.3223199 -0.18573551 0.32120046
-0.41488835 -0.33623004 0.39968604
-0.38053653 -0.21490721 0.33586487
-0.3092304 -0.18141814 0.3307406
-0.16198021 0.072387695 0.25180307
-0.33656228 -0.20363997 0.3698925
-0.3414999 -0.15656343 0.35885775
-0.18181288 0.10820547 0.27900955
-0.38501886 -0.30188945 0.37785608
-0.427933 -0.36154908 0.4025315
-0.2250417 0.01918666 0.26978177
-0.4657497 -0.36211002 0.4155732
-0.23841004 0.0018598605 0.27607387
-0.2104194 -0.0054472703 0.2724614
-0.318305 -0.12043725 0.30957383
-0.40270635 -0.3244506 0.39082798
-0.37170705 -0.2119067 0.37591654
-0.29802343 -0.0907999 0.30071887
-0.38094515 -0.20696455 0.3648703
-0.38540575 -0.26571563 0.33878797
-0.3398684 -0.23040378 0.34467492
-0.36781126 -0.1844689 0.3567059
-0.1949381 0.0075461306 0.30906057
-0.34002265 -0.22934869 0.361776
-0.42247975 -0.27810636 0.3543287
-0.24427798 -0.051178534 0.3324561
-0.40655744 -0.33659634 0.38310972
-0.41375068 -0.2713269 0.38934642
-0.37533402 -0.26265267 0.38587928
-0.43604216 -0.32215163 0.40607864
-0.31544596 -0.105207585 0.31323674
-0.44909188 -0.33533704 0.36147285
-0.436928 -0.30268508 0.3591892
-0.35642332 -0.22554582 0.32868475
-0.41014785 -0.27026317 0.34578303
-0.16376695 0.049668405 0.2925436
-0.24304235 -0.023912903 0.32834876
-0.1865699 0.02714684 0.26555005
-0.3947543 -0.22571579 0.35015073
-0.26738974 -0.1180168 0.3187197
-0.46547744 -0.36842424 0.36781126
-0.39923018 -0.3144847 0.3584846
-0.39537165 -0.22706363 0.3670886
-0.38286784 -0.21017766 0.34156203
-0.21643837 -0.0313648 0.28667098
-0.28125665 -0.070161164 0.29276717
-0.3375492 -0.13519202 0.34150195
-0.38583446 -0.29199117 0.3516805
-0.43054575 -0.32789537 0.3551373
-0.33996123 -0.13990217 0.3439838
-0.2867918 -0.0794467 0.29500493
-0.41353884 -0.3286231 0.3584986
-0.22835684 0.036962755 0.29310918
-0.29415187 -0.10753314 0.29832605
-0.3793079 -0.25060287 0.33489802
-0.3587197 -0.16710986 0.34116182
-0.2440798 -0.013529662 0.32431084
-0.30422392 -0.16036236 0.35489535
-0.4241841 -0.30761707 0.35123008
-0.21639702 -0.03677535 0.30953902
-0.22232579 0.045638546 0.293734
-0.37492478 -0.19385237 0.35700664
-0.23258774 -0.027926859 0.32764006
-0.4089591 -0.33851165 0.37264466
-0.21749583 -0.04081003 0.30237705
-0.41634148 -0.35144407 0.3893547
-0.23569372 0.025643067 0.28991264
-0.36051962 -0.19445795 0.32526225
-0.36027634 -0.2639884 0.36426866
-0.17044574 0.03307037 0.28271288
-0.358936 -0.24874958 0.339718
-0.32897496 -0.17194349 0.36640212
-0.30949235 -0.17643453 0.32406044
-0.23793402 0.021318298 0.28718364
-0.247641 -0.014641758 0.32352042
-0.13789143 0.084936775 0.2661434
-0.4606712 -0.34788164 0.41035444
-0.20716642 -0.015321009 0.28154185
-0.43166402 -0.34989727 0.3621047
-0.23937578 -0.021243438 0.27582878
-0.3596403 -0.24863893 0.3772731
-0.27308744 -0.10048056 0.34405532
-0.33292204 -0.14754987 0.3579869
-0.3091661 -0.08956017 0.32011783
-0.25733605 -0.04008781 0.28257847
-0.20822059 -0.023828493 0.3063362
-0.45317775 -0.34082237 0.3631947
-0.27495056 -0.10887913 0.34428355
-0.20096684 0.055541255 0.30604467
-0.42989936 -0.37367398 0.39055443
-0.36799455 -0.18237068 0.3517415
-0.20896217 0.028639074 0.26312932
-0.37665698 -0.28152588 0.38129425
-0.3654564 -0.26986566 0.37144852
-0.1455177 0.08881186 0.28990293
-0.34604406 -0.20389012 0.32262653
-0.31853816 -0.1501589 0.30878592
-0.41369942 -0.28283456 0.39518645
-0.2915825 -0.15431146 0.32433847
-0.18912108 0.061349154 0.2548275
-0.26656803 -0.023098221 0.30111492
-0.35042527 -0.24570869 0.34717214
-0.19062965 0.07765077 0.25670034
-0.35795757 -0.21416248 0.3779423
-0.22777778 -0.04322967 0.28609407
-0.29553568 -0.09567882 0.34599513
-0.44012406 -0.29515734 0.37279338
-0.3070486 -0.17994656 0.34500656
-0.31625685 -0.19262737 0.3513772
-0.23804429 0.022326602 0.29254392
-0.1942004 0.0790377 0.29510725
-0.45601788 -0.34691793 0.364275
-0.39549676 -0.31863454 0.3701173
-0.3574304 -0.221635 0.32726675
-0.30205154 -0.17172451 0.33035883
-0.2931242 -0.123177916 0.35249072
-0.19821306 -0.006137889 0.28349888
-0.17124088 0.03807158 0.26964355
-0.38654813 -0.29805788 0.38478568
-0.28474173 -0.07280089 0.29456967
-0.4437554 -0.3016286 0.38456804
-0.4734696 -0.34679937 0.39109975
-0.24770184 -0.034439556 0.3310658
-0.1986979 0.031399146 0.26116326
-0.3443262 -0.18024069 0.31826547
-0.21739121 0.044417415 0.27074504
-0.28262872 -0.14196864 0.33356363
-0.28431973 -0.069619104 0.33704177
-0.19658998 0.027085414 0.2623586
-0.3027453 -0.16951446 0.32554334
-0.34366673 -0.20082873 0.32181883
-0.26357707 -0.022060214 0.3155175
-0.4059633 -0.28659153 0.34455663
-0.2580771 -0.014994474 0.28985384
-0.15378901 0.089877315 0.29531482
-0.23294827 -0.037131038 0.32762003
-0.31364596 -0.16059083 0.3120101
-0.44639307 -0.31065404 0.39324272
-0.20908844 0.046307117 0.26367024
-0.3246417 -0.14430735 0.35913527
-0.2715518 -0.035585552 0.3202802
-0.35688415 -0.183854 0.3246644
-0.41843173 -0.3543274 0.39150771
-0.29268768 -0.13818842 0.35118312
-0.45837852 -0.37440088 0.3672636
-0.37910262 -0.24094343 0.38504577
-0.14037713 0.08395091 0.26068366
-0.46429917 -0.33327487 0.3817779
-0.37913215 -0.21725273 0.37528297
-0.30356228 -0.17066208 0.3486374
-0.387222 -0.30139846 0.35930428
-0.45374978 -0.31853676 0.37397632
-0.36779338 -0.25480667 0.38226372
-0.2748376 -0.04909839 0.3296485
-0.44810265 -0.34988868 0.41351813
-0.36596996 -0.26057538 0.3792302
-0.16866827 0.06541087 0.30135682
-0.34134963 -0.22546576 0.33630115
-0.21072072 0.06369521 0.28953815
-0.1849339 0.096859515 0.28840387
-0.1936213 0.042824067 0.2582148
-0.2935165 -0.1347368 0.3523164
-0.40202975 -0.3181554 0.3934442
-0.41828284 -0.330377 0.3572118
-0.30866185 -0.15696143 0.31166166
-0.19852422 0.07519208 0.26366684
-0.4071142 -0.33405387 0.3695983
-0.40342736 -0.28231972 0.34348607
-0.24876702 -0.006580252 0.31751776
-0.45529303 -0.37081918 0.36631292
-0.34550563 -0.1984727 0.3732428
-0.32581758 -0.18543583 0.31933132
-0.36061427 -0.19330308 0.3707261
-0.47134608 -0.34376523 0.39139926
-0.3675317 -0.19992463 0.32918522
-0.32632828 -0.11635858 0.3276758
-0.31842393 -0.19505183 0.3534309
-0.3569164 -0.1691576 0.33131063
-0.37016857 -0.22370741 0.38057497
-0.3668109 -0.23635937 0.38244918
-0.22176825 0.022988154 0.26837137
-0.4052922 -0.3256353 0.36242026
-0.26547483 -0.05170557 0.28597394
-0.27607715 -0.05039988 0.29326567
-0.16427931 0.045014463 0.2882396
-0.22251494 0.038744938 0.30308464
-0.27966148 -0.11123117 0.29967117
-0.41854388 -0.34427637 0.40009075
-0.30763835 -0.1236039 0.30331975
-0.24928948 -0.08925826 0.32181722
-0.46789128 -0.35946918 0.4134729
-0.3287976 -0.14769858 0.35957345
-0.36327806 -0.1834932 0.36210856
-0.2754868 -0.09891959 0.29562545
-0.19320932 0.06637932 0.30340225
-0.41993856 -0.35117143 0.37069243
-0.3587988 -0.18270428 0.36536038
-0.3583318 -0.23382714 0.37901986
-0.37771928 -0.2221947 0.3322742
-0.19447786 0.032582227 0.26079464
-0.38996688 -0.2535603 0.38839233
-0.27499506 -0.11323519 0.30282146
-0.25560537 -0.017581616 0.32056603
-0.38739643 -0.22694443 0.37672234
-0.23697491 -0.02273345 0.32795042
-0.1988623 0.08033954 0.26846695
-0.4102913 -0.3376772 0.39282313
-0.35638008 -0.2533887 0.37041375
-0.29199076 -0.09063722 0.34475145
-0.20619377 0.0661302 0.29462677
-0.32442012 -0.1205844 0.31619602
-0.32522655 -0.17142914 0.36543125
-0.17764828 0.041668735 0.3038835
-0.19482225 0.08779838 0.28435072
-0.3316295 -0.15942425 0.36368415
-0.36100617 -0.17635931 0.33207986
-0.21962038 -0.04406572 0.30364084
-0.4300604 -0.3201654 0.35399127
-0.4205541 -0.35767668 0.37938806
-0.15358013 0.060241226 0.2729387
-0.28080082 -0.09341046 0.34633708
-0.24458905 -0.08027662 0.32194686
-0.45889723 -0.32381773 0.38400334
-0.46800047 -0.36513945 0.41629317
-0.40291548 -0.28406242 0.39625433
-0.441753 -0.39242423 0.394687
-0.26057312 -0.0130131 0.30415416
-0.15536126 0.057353795 0.28021324
-0.34136242 -0.1655297 0.31735122
-0.35321942 -0.22031419 0.37720612
-0.38862953 -0.22203259 0.34210345
-0.18739423 0.0692762 0.2538885
-0.24169606 0.0016433187 0.31693277
-0.2022823 0.051869243 0.30723542
-0.3647583 -0.23898691 0.33225194
-0.36051536 -0.17072289 0.33830827
-0.373542 -0.20039189 0.3348006
-0.24803156 -0.0077623874 0.28137928
-0.36644596 -0.17919625 0.34815168
-0.39085633 -0.2280685 0.3745862
-0.3060528 -0.11922245 0.3024696
-0.36759546 -0.24809416 0.38283148
-0.35500464 -0.24790514 0.34280363
-0.42971978 -0.37134382 0.38155913
-0.17308186 0.09549397 0.24639185
-0.26598045 -0.101587415 0.33891812
-0.31769428 -0.12477045 0.3080061
-0.32112473 -0.19480623 0.35832548
-0.27001444 -0.122418836 0.3273472
-0.1883072 0.06356362 0.30549884
-0.33915156 -0.22313616 0.36568263
-0.35304856 -0.22991139 0.37662947
-0.16056323 0.048621036 0.2797538
-0.306078 -0.08658723 0.31387392
-0.4852234 -0.36593896 0.39103067
-0.39165816 -0.26159894 0.338422
-0.41065288 -0.25013626 0.35728303
-0.44097054 -0.35717255 0.36295643
-0.24871875 -0.0037348066 0.31505215
-0.29578274 -0.14840452 0.3128752
-0.32659942 -0.12182685 0.34272137
-0.17261562 0.041400135 0.29927215
-0.18848673 0.0981525 0.28114024
-0.46244836 -0.34117153 0.37050006
-0.380055 -0.20043021 0.35330257
-0.33263808 -0.12587374 0.33197346
-0.1705601 0.049496792 0.30015877
-0.46377105 -0.36899686 0.41857278
-0.16676116 0.05303412 0.29799822
-0.28980988 -0.13590315 0.34944856
-0.20482165 0.047508314 0.26131803
-0.23965195 -0.028889082 0.32946807
-0.37380236 -0.25212836 0.3856678
-0.44570547 -0.38042375 0.37249395
-0.3808605 -0.24209759 0.33372477
-0.31616125 -0.111004315 0.34402943
-0.2743032 -0.045482457 0.29371804
-0.30981615 -0.10169846 0.3079884
-0.42161798 -0.26791057 0.3610841
-0.16992925 0.060121104 0.30170393
-0.38350815 -0.27986133 0.38860348
-0.1786367 0.020978356 0.2830894
-0.31177163 -0.16756026 0.35914525
-0.41033092 -0.34296697 0.38043126
-0.18561 0.07244322 0.25317603
-0.23013856 0.03396499 0.29464588
-0.19625317 0.005404491 0.27388
-0.33136216 -0.15766266 0.3128512
-0.3548874 -0.16722922 0.3293143
-0.17068267 0.05567939 0.25688
-0.40482512 -0.33238235 0.37146747
-0.41686457 -0.29356068 0.34795737
-0.43461913 -0.37566176 0.3786395
-0.29013786 -0.126421 0.3034642
-0.18401276 0.015593398 0.27846563
-0.2750682 -0.0571533 0.29072285
-0.14276665 0.084394515 0.2562686
-0.45540324 -0.3375642 0.36525005
-0.17337897 0.080951996 0.30088764
-0.2813763 -0.04625535 0.3074836
-0.21712449 -0.03621457 0.29186648
-0.19353129 -0.0011585243 0.28503856
-0.3508935 -0.24938938 0.35461855
-0.27796656 -0.062836975 0.33633363
-0.20732911 0.068542816 0.2737127
-0.2184087 -0.008768503 0.27196646
-0.2275821 -0.051755354 0.31719175
-0.14065236 0.07975219 0.28696358
-0.4398359 -0.3004874 0.36411864
-0.37151572 -0.18911028 0.34081903
-0.35633275 -0.25188473 0.3450714
-0.16023758 0.062003046 0.25901082
-0.2079894 0.016929839 0.3168923
-0.29364008 -0.12824179 0.30341327
-0.3763185 -0.20203821 0.36577207
-0.21720886 0.024518805 0.31495106
-0.3528604 -0.18148668 0.36775184
-0.28788543 -0.12361005 0.30283263
-0.26778305 -0.089536116 0.34201556
-0.4260469 -0.31349698 0.4040239
-0.27009168 -0.06304263 0.28774914
-0.1449055 0.081757784 0.28619814
-0.3394826 -0.18355381 0.31743068
-0.44101396 -0.32246387 0.4050858
-0.31796867 -0.119510606 0.349121
-0.44294423 -0.31954747 0.40276876
-0.3157973 -0.121927485 0.30719617
-0.15925594 0.08662827 0.24665299
-0.41806585 -0.26128665 0.3738198
-0.44032854 -0.30547276 0.39470914
-0.3426037 -0.19484445 0.37215024
-0.29355788 -0.07605626 0.33520305
-0.3525409 -0.23767632 0.33630106
-0.31306118 -0.18506601 0.32885522
-0.22766563 -0.014634363 0.32503343
-0.17559825 0.056427028 0.2552017
-0.27381128 -0.042875946 0.3251536
-0.33985412 -0.16025205 0.3169097
-0.39935476 -0.3175787 0.3610942
-0.30663434 -0.11217421 0.3030569
-0.29653764 -0.16345058 0.3295734
-0.3426242 -0.1414367 0.3367936
-0.18486398 0.104343206 0.27854872
-0.37428707 -0.26383635 0.34048072
-0.26398697 -0.11287269 0.3253003
-0.18698537 0.052579917 0.30799565
-0.43771294 -0.3068738 0.3979593
-0.31371918 -0.097625926 0.31813663
-0.26163766 -0.032414332 0.28613263
-0.41553372 -0.25651422 0.36306804
-0.21733633 -0.012553252 0.27373976
-0.28977796 -0.14186583 0.3475654
-0.35391182 -0.25403014 0.36155653
-0.25531328 -0.0050319824 0.30305833
-0.37033123 -0.26046318 0.3405461
-0.3223901 -0.13272339 0.30978447
-0.4398412 -0.31636062 0.40249765
-0.39987698 -0.32295597 0.36699873
-0.14455847 0.095139414 0.29071036
-0.22687195 -0.028265044 0.3250953
-0.45993477 -0.37871587 0.42023808
-0.3900066 -0.23597416 0.3807351
-0.4176847 -0.33294144 0.4027442
-0.312583 -0.18677881 0.33226603
-0.4614071 -0.3526518 0.41272068
-0.31009436 -0.094304204 0.33355513
-0.48012814 -0.36030167 0.38431287
-0.3510912 -0.16846535 0.36071846
-0.33370867 -0.12859291 0.33764324
-0.3380756 -0.22317424 0.3374715
-0.33846918 -0.18923679 0.31882668
-0.47209442 -0.3566655 0.37425247
-0.28782338 -0.104472 0.34922132
-0.27470362 -0.062255606 0.33714917
-0.14078723 0.07981766 0.27757263
-0.4252609 -0.35947314 0.4002664
-0.18464866 0.07662443 0.30118054
-0.17960484 0.02536083 0.2724862
-0.36304367 -0.23274137 0.3811463
-0.46029347 -0.32646865 0.38249725
-0.4328558 -0.3587215 0.3663022
-0.18074036 0.11167443 0.2667188
-0.48317254 -0.3686255 0.38178736
-0.31067047 -0.09653346 0.31246886
-0.23925593 -0.06650357 0.2954564
-0.2903778 -0.10530121 0.2971684
-0.3322558 -0.13896199 0.35302725
-0.307209 -0.12776563 0.35546315
-0.35349506 -0.16914456 0.32647654
-0.4148913 -0.2607739 0.35424066
-0.25403306 -0.0066653173 0.29050583
-0.3700742 -0.18744344 0.3567932
-0.16142747 0.056852877 0.26239842
-0.31399912 -0.18153696 0.35656142
-0.25361025 -0.05384788 0.33551472
-0.43584317 -0.30908623 0.35668427
-0.40649813 -0.26650643 0.39019525
-0.3179119 -0.10478854 0.31915307
-0.31364667 -0.18945238 0.34920555
-0.40170556 -0.32059315 0.3614649
-0.23466712 0.025412226 0.3005392
-0.48274636 -0.36186686 0.39086056
-0.2789433 -0.097023256 0.29470775
-0.3975909 -0.3056248 0.35315973
-0.45935476 -0.36876592 0.36628133
-0.41021344 -0.33727893 0.36847404
-0.35462636 -0.23297733 0.33240476
-0.4193141 -0.30714208 0.40231687
-0.22714917 0.033403397 0.3030181
-0.35991192 -0.17832853 0.36082953
-0.41687736 -0.3158943 0.3518964
-0.24234897 -0.0625096 0.32973275
-0.4050082 -0.31215602 0.39777252
-0.18204491 0.041328482 0.30668157
-0.21668284 -0.02655021 0.28218096
-0.25525388 -0.06549391 0.3371045
-0.16067502 0.050147817 0.28614116
-0.25586393 -0.034605853 0.33019298
-0.22054574 -0.037892416 0.2884307
-0.20196107 0.0048448034 0.31417537
-0.21735108 -0.029345885 0.31728518
-0.19674122 0.08617835 0.28159013
-0.25613534 -0.09790575 0.3086107
-0.44736525 -0.39089322 0.37903187
-0.42567867 -0.35079694 0.36534458
-0.40548822 -0.2635801 0.34376928
-0.23217443 0.0006890707 0.32123274
-0.36087894 -0.17608374 0.35750532
-0.25386727 -0.09715608 0.32045582
-0.44173044 -0.29697996 0.3765921
-0.43385583 -0.36089638 0.40872765
-0.3619495 -0.24018899 0.3804676
-0.4208971 -0.31405905 0.3515061
-0.43107554 -0.36329138 0.40558094
-0.3913664 -0.25187355 0.33744457
-0.23037127 -0.034140296 0.32651043
-0.2303701 -0.0119868945 0.27265054
-0.3531154 -0.16380784 0.32901967
-0.39316803 -0.22350626 0.36603785
-0.14818326 0.09218307 0.29268417
-0.39501348 -0.27521214 0.39344448
-0.1909255 0.07120885 0.3019601
-0.3440333 -0.2230641 0.33205566
-0.1838426 0.05292312 0.25551698
-0.2955405 -0.067898095 0.31585255
-0.4491074 -0.37801534 0.36956483
-0.18478417 0.10556843 0.26943716
-0.23740375 -0.053995825 0.3278941
-0.35085797 -0.15559882 0.33425504
-0.27709383 -0.040976968 0.31772053
-0.43899858 -0.36326274 0.4119401
-0.44958937 -0.37221953 0.36710954
-0.36719543 -0.21352369 0.37758633
-0.25377768 -0.008415952 0.3140246
-0.43597132 -0.3829474 0.39416164
-0.3991133 -0.25449374 0.38699278
-0.17078203 0.0451117 0.2989819
-0.17341755 0.044888575 0.30129877
-0.32510337 -0.194342 0.3631477
-0.3252097 -0.20808892 0.3533453
-0.20307353 0.072397076 0.2913376
-0.40121102 -0.32821757 0.3808925
-0.45842147 -0.35533434 0.41447902
-0.29589215 -0.1562263 0.31947345
-0.36216414 -0.25585273 0.3428428
-0.18294045 0.029312067 0.30504274
-0.42299172 -0.36183038 0.39227942
-0.18915947 0.09054885 0.2898573
-0.33572328 -0.13232088 0.32693386
-0.44008484 -0.32576102 0.40663028
-0.3424269 -0.20378625 0.32302395
-0.1827339 0.04584293 0.3072508
-0.40526038 -0.32922053 0.36601865
-0.2580121 -0.05368055 0.336063
-0.382402 -0.21395448 0.37036377
-0.3909759 -0.29924446 0.35307336
-0.2930282 -0.08290161 0.29868704
-0.3417136 -0.18142903 0.36949685
-0.4685817 -0.35199636 0.37234718
-0.22337508 0.039701078 0.27588698
-0.28645808 -0.064198054 0.2988934
-0.33207297 -0.13438657 0.31833756
-0.37416214 -0.22730348 0.3815438
-0.372404 -0.23511145 0.38346994
-0.3000717 -0.10875434 0.30001402
-0.18511799 0.010558082 0.28675935
-0.17991196 0.09003595 0.2512836
-0.3497209 -0.20513561 0.37497675
-0.292432 -0.066335045 0.30690455
-0.36825022 -0.18862715 0.3345469
-0.31757873 -0.13211477 0.30740198
-0.44912785 -0.30872637 0.37896174
-0.3287538 -0.1199451 0.3321377
-0.21952298 0.050324038 0.2802304
-0.4857404 -0.36810532 0.40314478
-0.43133613 -0.29326653 0.3572562
-0.3524068 -0.16022749 0.33168706
-0.34749103 -0.16158095 0.35814866
-0.22009875 -0.042706467 0.3109061
-0.30856532 -0.14696631 0.35877615
-0.37411475 -0.20503649 0.3705678
-0.19561484 0.0752723 0.2600984
-0.19133441 0.0034366678 0.3003525
-0.20011504 -0.013531107 0.29539928
-0.40668586 -0.30946562 0.39885294
-0.25607437 -0.094078146 0.3034106
-0.34362245 -0.17222409 0.31811604
-0.2906176 -0.1417312 0.31181604
-0.30084646 -0.1200106 0.3012797
-0.16497709 0.08802448 0.29887497
-0.42709136 -0.27487767 0.37529156
-0.3896963 -0.3052062 0.36021328
-0.21890397 -0.007175274 0.32210463
-0.32578346 -0.1181681 0.32113886
-0.42556554 -0.30290797 0.40064424
-0.422902 -0.31643352 0.40461278
-0.29837227 -0.12417389 0.30184102
-0.34249032 -0.23670037 0.35310557
-0.3935256 -0.31619474 0.3718881
-0.39485112 -0.2505629 0.3392208
-0.32364455 -0.16868988 0.31342548
-0.40265757 -0.2729588 0.3423103
-0.23554161 -0.06525636 0.31923354
-0.20636526 0.021525586 0.2637678
-0.40600115 -0.33388692 0.38754636
-0.39204115 -0.29194963 0.34792054
-0.4158594 -0.34021354 0.39890867
-0.33949533 -0.22107512 0.33423197
-0.2896948 -0.12972167 0.30493322
-0.36717764 -0.25328305 0.33792132
-0.40347227 -0.32133865 0.39352638
-0.32607573 -0.13011101 0.3511842
-0.16214827 0.047221564 0.27479908
-0.3467424 -0.19909912 0.32143855
-0.15854168 0.055199094 0.2873106
-0.4327504 -0.37715647 0.38579035
-0.26328158 -0.04514013 0.28523514
-0.16732128 0.04237184 0.2920359
-0.16656329 0.06087008 0.2559486
-0.40241313 -0.31261137 0.39558113
-0.40346333 -0.33208674 0.38030124
-0.28590283 -0.10657849 0.29722044
-0.28058234 -0.06939588 0.33871746
-0.32380188 -0.14324066 0.30988282
-0.4339375 -0.30606255 0.35591203
-0.32612056 -0.11935273 0.3400015
-0.3271904 -0.1844811 0.36627948
-0.42551053 -0.31162375 0.35197723
-0.33725762 -0.14850913 0.3562825
-0.40577334 -0.33464947 0.37393427
-0.43486404 -0.28868514 0.36651438
-0.3982163 -0.22937408 0.36257797
-0.35071248 -0.1644465 0.3575389
-0.39791936 -0.32325432 0.37436348
-0.21615422 0.03723868 0.3091207
-0.3375572 -0.22393823 0.3626154
-0.31951028 -0.105387226 0.32614136
-0.3566605 -0.16382425 0.34403902
-0.2765913 -0.07708546 0.29082
-0.20859662 0.05715487 0.2665563
-0.3482734 -0.20136538 0.3742247
-0.44253707 -0.3008064 0.36955327
-0.44423553 -0.33836907 0.41056627
-0.40675607 -0.24330336 0.35697594
-0.38572603 -0.21295479 0.3646239
-0.27882454 -0.10077487 0.29564485
-0.33012545 -0.1828125 0.36780357
-0.3485818 -0.22291084 0.37479812
-0.31879592 -0.123220146 0.35089815
-0.2664741 -0.09648048 0.29730633
-0.18127537 0.07420086 0.2515527
-0.43905175 -0.38702482 0.38831568
-0.20018542 0.062490992 0.30244917
-0.3269157 -0.12843478 0.31504232
-0.20406875 -0.005300224 0.27571422
-0.37501323 -0.28599784 0.37399513
-0.36886987 -0.27494377 0.3731776
-0.3516634 -0.1569279 0.34571105
-0.3514492 -0.24468935 0.34374765
-0.19253024 0.06057581 0.30590516
-0.3736581 -0.2561335 0.38539198
-0.24589372 -0.05507927 0.28453338
-0.36365062 -0.17698975 0.35360402
-0.27664974 -0.090760365 0.29309914
-0.30806178 -0.18227102 0.34210712
-0.4718315 -0.3744435 0.37061825
-0.2611968 -0.026794478 0.32325026
-0.351969 -0.19340484 0.37267232
-0.44794723 -0.38777176 0.3757089
-0.4351652 -0.36975777 0.37226185
-0.22491154 0.041772515 0.29404414
-0.3200663 -0.10756913 0.33351928
-0.3197134 -0.11321069 0.34251484
-0.40586156 -0.32325992 0.39551494
-0.35972267 -0.25828367 0.3722
-0.311745 -0.17819545 0.35553098
-0.44103715 -0.36674416 0.41276157
-0.33066353 -0.14430296 0.35723716
-0.25894296 -0.032407623 0.32817844
-0.2639785 -0.095630005 0.33879966
-0.3421392 -0.23033872 0.36543494
-0.17107177 0.08464584 0.24795584
-0.35150164 -0.1553381 0.34023613
-0.3414891 -0.23383872 0.3596602
-0.33543965 -0.18481092 0.31766534
-0.29690737 -0.07337583 0.32778472
-0.32067358 -0.17717457 0.36345822
-0.3841102 -0.22569613 0.3777038
-0.2424181 -0.017977681 0.32648548
-0.2320747 -0.0036789887 0.32302347
-0.39409027 -0.31590885 0.36759606
-0.3442167 -0.14643496 0.32946455
-0.47859952 -0.36071452 0.38032076
-0.27758646 -0.12422259 0.34175003
-0.16233414 0.06919011 0.25320825
-0.31321168 -0.17713077 0.32104984
-0.32117036 -0.20210949 0.33978817
-0.2359716 0.013909835 0.27760547
-0.3875757 -0.29594976 0.35347778
-0.23016554 0.029676588 0.30278742
-0.28122574 -0.1363996 0.31764698
-0.23421489 0.022719147 0.30533442
-0.31058553 -0.11587976 0.30480483
-0.17609362 0.029303506 0.29645774
-0.41159624 -0.25401247 0.37594396
-0.22177052 0.03662818 0.27203092
-0.39499754 -0.24483386 0.33998787
-0.2547298 -0.09490037 0.3276358
-0.18643652 0.011976093 0.27919155
-0.36861163 -0.21946345 0.379485
-0.35438052 -0.16116357 0.34672397
-0.29538077 -0.073984474 0.33155626
-0.42318577 -0.346642 0.36417696
-0.40910608 -0.32880455 0.36150166
-0.39002687 -0.21772471 0.34890378
-0.29420543 -0.06679709 0.31083483
-0.15732451 0.09839031 0.2959103
-0.33570698 -0.22603953 0.3502374
-0.44549212 -0.38414603 0.41225255
-0.3878086 -0.2808213 0.3440043
-0.18167606 0.10984461 0.27525204
-0.41740352 -0.32048076 0.3534029
-0.27609593 -0.037481774 0.30753842
-0.19908231 0.08282376 0.28129524
-0.3724351 -0.19620976 0.33569938
-0.45698237 -0.3309076 0.4009342
-0.20292194 0.07519509 0.28752682
-0.45293176 -0.31539032 0.3773741
-0.39253515 -0.30933836 0.36090976
-0.24005868 0.017251126 0.28717476
-0.23897746 -0.05115919 0.28472212
-0.27783847 -0.072071545 0.34041834
-0.27330464 -0.03501761 0.31614208
-0.2085969 -0.024353959 0.29058552
-0.22339058 0.031812843 0.27150986
-0.33702505 -0.21391156 0.36781734
-0.39386338 -0.25405172 0.3385573
-0.44941598 -0.30947593 0.38281274
-0.47775614 -0.3712665 0.37475067
-0.30326277 -0.14215139 0.30688012
-0.24702097 -0.0831392 0.32408282
-0.23641123 0.024976714 0.29385835
-0.25347918 -0.09656199 0.31444576
-0.2214805 0.030076878 0.31059444
-0.43268555 -0.28593254 0.38290292
-0.37539196 -0.1974429 0.36140317
-0.4271635 -0.31786028 0.40513667
-0.15260208 0.063376136 0.28351206
-0.27558148 -0.1307713 0.33132786
-0.20323108 0.07658465 0.28193927
-0.17928603 0.05133692 0.2564329
-0.3240349 -0.18480417 0.36466706
-0.19904946 0.009110257 0.31290737
-0.34889343 -0.23079133 0.37311444
-0.38140354 -0.29763916 0.37059546
-0.28708306 -0.09825947 0.29561922
-0.35947278 -0.2088779 0.32499003
-0.18482606 0.05950728 0.306456
-0.27901736 -0.10241586 0.34685114
-0.37303773 -0.21978576 0.37880716
-0.31497145 -0.10910743 0.31047508
-0.35190195 -0.22206806 0.32829386
-0.38267797 -0.23380832 0.38231558
-0.17857957 0.052734002 0.3055669
-0.19446112 0.0621478 0.2569883
-0.18861333 0.074165836 0.25473705
-0.2539878 -0.08423117 0.29675007
-0.26024193 -0.03898009 0.330979
-0.38441935 -0.23090938 0.3351134
-0.392176 -0.2731948 0.39253774
-0.18817991 0.06771811 0.30399185
-0.33708984 -0.13334854 0.336866
-0.24017018 -0.05969551 0.32868898
-0.30517876 -0.15304135 0.35709715
-0.20491248 -0.020542508 0.2996739
-0.2688102 -0.05175942 0.33422548
-0.39016134 -0.26496765 0.39117736
-0.40336418 -0.25862682 0.34325075
-0.4752993 -0.35001215 0.39321288
-0.2666707 -0.025970744 0.3154082
-0.26895222 -0.076259956 0.28933525
-0.42154062 -0.26585448 0.36589375
-0.26788628 -0.05542586 0.28696615
-0.17364061 0.032978237 0.27257466
-0.4370005 -0.38438457 0.38975877
-0.44139776 -0.38937968 0.40207866
-0.258307 -0.09724422 0.33204612
-0.24180453 0.011795942 0.30701438
-0.45253506 -0.39122546 0.37534904
-0.25080562 -0.016346233 0.28146285
-0.29384774 -0.15590215 0.3440857
-0.41460258 -0.34161332 0.36745387
-0.46762842 -0.33839223 0.39168486
-0.34048837 -0.23254187 0.34825072
-0.17911392 0.03771057 0.30407044
-0.3715072 -0.24266905 0.33277687
-0.27791446 -0.11974465 0.34394947
-0.34011328 -0.19063844 0.37109795
-0.40948626 -0.26602432 0.38842455
-0.20006928 -0.012530541 0.29956484
-0.33681738 -0.13702336 0.34569952
-0.26244366 -0.10977458 0.31477416
-0.4077974 -0.33180368 0.36542556
-0.2411413 -0.016320651 0.2758563
-0.37929755 -0.20148611 0.34380245
-0.15754521 0.09200528 0.29663748
-0.31619132 -0.19447446 0.34790304
-0.16373585 0.057238057 0.29662395
-0.37899196 -0.262248 0.33846745
-0.38517094 -0.24410905 0.33499113
-0.41401678 -0.27901822 0.34716046
-0.44228995 -0.2986514 0.3732421
-0.2630745 -0.04750384 0.33379275
-0.24526592 0.0016089771 0.3136988
-0.20223516 0.077591866 0.27384406
-0.36460733 -0.19647235 0.32770404
-0.4056767 -0.29542434 0.39818433
-0.1828008 0.09379572 0.25445363
-0.4203359 -0.2924822 0.34956893
-0.39000115 -0.21962862 0.36633223
-0.21572009 0.028455792 0.31369215
-0.20249748 0.0047941636 0.2705142
-0.33020353 -0.16887721 0.31361344
-0.44473732 -0.39677134 0.39393413
-0.24362235 0.013266832 0.2984004
-0.19295916 -0.0020120107 0.291057
-0.44965568 -0.33205488 0.362021
-0.33041403 -0.19833152 0.36640507
-0.29516697 -0.08950257 0.298756
-0.19786236 0.055617433 0.25832117
-0.3133459 -0.17562938 0.358396
-0.4603652 -0.38320738 0.36950356
-0.47503972 -0.3622484 0.37492746
-0.35798308 -0.18988891 0.37007117
-0.42691666 -0.35588115 0.40436774
-0.44254798 -0.39270115 0.3905154
-0.37746188 -0.2887063 0.35913175
-0.1968264 -0.0030662436 0.28161693
-0.35080266 -0.24830818 0.35086262
-0.46564493 -0.33468172 0.38849548
-0.17942762 0.10554791 0.25606397
-0.18070841 0.018690782 0.29430532
-0.26168782 -0.08910008 0.33859187
-0.33620858 -0.16108046 0.36332422
-0.34739655 -0.22102988 0.32907724
-0.2747665 -0.03932307 0.3196885
-0.28130302 -0.045258164 0.31160504
-0.33953875 -0.2090191 0.3710478
-0.20515642 0.05887248 0.30199617
-0.35995853 -0.26383978 0.3592586
-0.39881212 -0.2461557 0.3427124
-0.34376663 -0.14981878 0.35132533
-0.41340443 -0.31326592 0.3513814
-0.39713195 -0.32122737 0.38189334
-0.30924106 -0.1357948 0.30499777
-0.39783487 -0.3220241 0.36998352
-0.31116134 -0.10958954 0.34677988
-0.3385139 -0.16619608 0.3648768
-0.33119375 -0.12513319 0.3251771
-0.29005134 -0.06291713 0.30554974
-0.36379853 -0.21734327 0.32694104
-0.22107096 0.042220376 0.30142385
-0.42347893 -0.2751506 0.3572381
-0.43989596 -0.35262832 0.361493
-0.32076976 -0.18952727 0.3246281
-0.2643759 -0.06907867 0.33975378
-0.39527497 -0.22956504 0.37093413
-0.24930353 -0.012289671 0.28127053
-0.302762 -0.10455598 0.30154943
-0.18830115 0.04138858 0.25848305
-0.21747914 -0.03872633 0.29487532
-0.39140022 -0.3085319 0.38450307
-0.23717567 -0.039070357 0.32959428
-0.26893377 -0.1098358 0.3386553
-0.31909096 -0.1537387 0.36206454
-0.4717755 -0.3636298 0.41391385
-0.3899288 -0.21560158 0.35611275
-0.24186337 0.015381603 0.28980657
-0.25040838 -0.045777265 0.28138152
-0.19471616 0.08574484 0.2875582
-0.19363698 0.017039943 0.26786542
-0.22292271 -0.031118698 0.32199907
-0.2719348 -0.056322265 0.33537006
-0.4637134 -0.38286778 0.36947575
-0.3631253 -0.24665803 0.3805558
-0.33537847 -0.22353142 0.3430802
-0.20351891 0.06647296 0.26522377
-0.22891563 0.02257319 0.311125
-0.42337847 -0.36033976 0.37740755
-0.16362321 0.043836404 0.2810738
-0.37186643 -0.26818675 0.38219222
-0.21862587 0.018714517 0.3169831
-0.32841855 -0.12060564 0.3366996
-0.18059745 0.021244656 0.27663323
-0.30986458 -0.16605775 0.31600797
-0.38794053 -0.30790722 0.3714682
-0.48227254 -0.36351138 0.38537654
-0.22759546 0.027368175 0.27435052
-0.25776848 -0.010713141 0.30986023
-0.4121586 -0.32561183 0.4001455
-0.4471342 -0.388083 0.41238102
-0.23602565 -0.06848054 0.31627554
-0.3202308 -0.106723964 0.32921746
-0.32979575 -0.1313219 0.31712344
-0.42330825 -0.33847106 0.4055174
-0.17644882 0.034413025 0.26757044
-0.45021978 -0.39272103 0.37786317
-0.47783548 -0.3680037 0.4133405
-0.22787693 0.017431086 0.27151954
-0.4491722 -0.3128467 0.3912112
-0.23784663 0.006043831 0.2766645
-0.30515736 -0.16291597 0.31660518
-0.34580815 -0.21945341 0.37346873
-0.37494633 -0.23151901 0.38261378
-0.44603425 -0.34683236 0.36071
-0.18837912 0.0967692 0.26415783
-0.4187435 -0.27588415 0.35126472
-0.24574591 -0.079326995 0.32573155
-0.4152748 -0.3485906 0.39115492
-0.23390764 -0.036988117 0.27990487
-0.19698972 0.026088927 0.31322926
-0.29878342 -0.072874084 0.3195768
-0.20302184 -0.0062771738 0.3117404
-0.25143445 -0.07762198 0.3332426
-0.43153825 -0.37548524 0.39464512
-0.22902639 0.020841625 0.27328983
-0.30498722 -0.14304976 0.357488
-0.47122824 -0.35941988 0.37247574
-0.351307 -0.23322126 0.33429247
-0.3481325 -0.21167247 0.37515438
-0.30220813 -0.106783345 0.34898937
-0.29450554 -0.13044845 0.3530213
-0.3299814 0.055720925 -0.16891745
-0.48814267 -0.11161405 -0.2260696
-0.35840148 0.10027795 -0.16780755
-0.5893458 -0.26466691 -0.23643441
-0.6146598 -0.30112457 -0.21656635
-0.5041968 -0.09301028 -0.18323004
-0.5608573 -0.15654501 -0.21827757
-0.4755736 -0.049198765 -0.20313922
-0.48910388 -0.066052504 -0.20519508
-0.37423766 0.0036456808 -0.19430149
-0.4343601 -0.077012226 -0.19538441
-0.48073485 -0.0761456 -0.22006053
-0.38786665 0.062322732 -0.170778
-0.45368114 -0.09917024 -0.18929604
-0.3260072 0.113154046 -0.19399834
-0.42104834 0.020470083 -0.17679101
-0.4641668 -0.10041923 -0.17874186
-0.47520247 -0.0713207 -0.2199144
-0.44055992 -0.0034922995 -0.18226045
-0.52894115 -0.12070347 -0.21843277
-0.48681664 -0.12950635 -0.2213992
-0.50345653 -0.15964925 -0.19427517
-0.4196694 -0.055751096 -0.20011424
-0.5247748 -0.13808313 -0.18100587
-0.5052363 -0.08515578 -0.20570791
-0.610359 -0.22526762 -0.20355663
-0.51519585 -0.11513221 -0.22454712
-0.37716997 0.0032610744 -0.19803493
-0.45416147 -0.021322474 -0.18270737
-0.52069944 -0.16835204 -0.1868819
-0.5817535 -0.2531584 -0.20313582
-0.45804203 -0.07140128 -0.22049809
-0.34689814 0.03346305 -0.17756492
-0.41518334 -0.03152764 -0.16602091
-0.55940324 -0.21323831 -0.19221754
-0.43596923 -0.009392932 -0.16931134
-0.41980428 -0.053569335 -0.17843314
-0.63949585 -0.28935796 -0.2015785
-0.6087786 -0.21625295 -0.22559372
-0.4088764 0.0013941787 -0.21065113
-0.52103305 -0.12353396 -0.22602594
-0.5064234 -0.12483624 -0.22892651
-0.56504524 -0.21035264 -0.18991771
-0.33117217 0.05510387 -0.18290384
-0.5137874 -0.10608491 -0.21976382
-0.3181017 0.07072736 -0.17795476
-0.46677428 -0.11691801 -0.1940969
-0.48112914 -0.08319254 -0.22239843
-0.5415376 -0.2040862 -0.22791213
-0.51188445 -0.10783555 -0.18189053
-0.6564163 -0.28663296 -0.20990863
-0.64637494 -0.26216474 -0.2223132
-0.4003961 0.04803426 -0.1818806
-0.45154923 -0.05599778 -0.21895379
-0.34845707 0.032193236 -0.18271789
-0.46107367 -0.095249 -0.17736425
-0.44446868 -0.041172467 -0.21663198
-0.60431206 -0.27470508 -0.20269309
-0.5075356 -0.14459524 -0.18147886
-0.5218063 -0.11826953 -0.18454671
-0.5316384 -0.19546825 -0.19969743
-0.5125571 -0.1541409 -0.1836783
-0.57187223 -0.23130092 -0.19542351
-0.28474027 0.13989122 -0.1395792
-0.35068744 0.09970698 -0.18999171
-0.44829232 -0.030257363 -0.16946188
-0.44543427 -0.06124103 -0.21787316
-0.5408164 -0.16903868 -0.23522982
-0.5411476 -0.12975194 -0.2105618
-0.6315748 -0.25678715 -0.20446979
-0.46549332 -0.08918206 -0.17286485
-0.5469326 -0.19284627 -0.1880796
-0.5412046 -0.17994672 -0.18550321
-0.42211 0.020211063 -0.18951175
-0.46216226 -0.030296087 -0.18750033
-0.4550162 -0.024367597 -0.18008277
-0.3458025 0.057094477 -0.15293673
-0.49806213 -0.08243357 -0.18387106
-0.5478209 -0.20304632 -0.23373896
-0.33925828 0.07146472 -0.1983994
-0.5441996 -0.19280016 -0.2349289
-0.38655853 0.06491478 -0.17335996
-0.4959468 -0.07251623 -0.19479725
-0.3915488 0.05783106 -0.17190357
-0.5993949 -0.26935303 -0.24271408
-0.45532423 -0.0746736 -0.21955699
-0.5237193 -0.1888859 -0.21441102
-0.5044556 -0.09745996 -0.18086556
-0.4738867 -0.07483734 -0.22124776
-0.35587496 0.022693697 -0.18363118
-0.5023035 -0.12939401 -0.17809725
-0.5009993 -0.084783405 -0.18561879
-0.48436594 -0.11661 -0.1777535
-0.45888028 -0.035557814 -0.17516938
-0.28287202 0.120514385 -0.17959937
-0.4526723 -0.09820101 -0.20474885
-0.34040087 0.09858361 -0.19540522
-0.3976621 0.030408807 -0.1592094
-0.50819993 -0.13751127 -0.22964802
-0.5889269 -0.20103058 -0.19792932
-0.34475246 0.036188032 -0.17697543
-0.41502956 0.028490793 -0.17698242
-0.3781757 0.07034627 -0.16354585
-0.36304507 0.08104178 -0.1551794
-0.60433745 -0.25195304 -0.24693584
-0.4803846 -0.07415579 -0.17418812
-0.46198672 -0.099388376 -0.21614128
-0.5175603 -0.101015575 -0.19501062
-0.29973748 0.092937276 -0.1689286
-0.40575886 0.025675364 -0.1624668
-0.47503576 -0.07905527 -0.22205405
-0.3234168 0.14257199 -0.17563127
-0.31671268 0.13376766 -0.14488822
-0.4966371 -0.15487882 -0.20905069
-0.37355635 0.020259794 -0.15872373
-0.5243175 -0.13356197 -0.18139997
-0.49735346 -0.11936925 -0.17638052
-0.3347182 0.05165957 -0.18498361
-0.39081663 -0.014947072 -0.19990137
-0.3326211 0.07431707 -0.15029609
-0.5048371 -0.08794826 -0.2116067
-0.26459998 0.13834426 -0.16866761
-0.49707776 -0.14755166 -0.18892837
-0.5094956 -0.16548492 -0.19353718
-0.47284314 -0.04370015 -0.18963942
-0.3872682 0.061376654 -0.18858348
